3.169 7.5477 4.2325
3.0911 7.5487 4.2962
3.06 7.4103 4.2494
-4.7524 11.2407 -1.6925
-6.1592 15.6857 -2.7588
-6.1475 15.686 -2.6588
-6.1719 15.5298 -2.6582
-1.2086 3.8227 1.8227
-1.276 3.8224 1.9901
-1.3087 3.8263 1.7992
-6.3038 15.4049 3.141
-6.3738 15.365 3.2651
-6.2796 15.3425 3.3007
-1.7495 11.2701 3.9568
-1.8505 11.2714 3.9471
-2.8641 15.4979 -0.6578
-2.7962 15.5009 -0.58
3.8056 8.3452 3.5748
3.8026 8.4795 3.5722
3.7347 8.3464 3.6489
-6.487 3.3458 -0.0854
-6.5867 3.3494 -0.1088
-6.6712 15.5932 -0.484
-6.7196 15.591 -0.3559
-6.6033 15.5202 -0.4586
-8.2762 9.1206 3.1247
5.4586 6.0895 2.7875
5.3784 6.0894 2.8474
5.3803 5.955 2.8492
2.0671 8.6846 -2.6041
2.1537 8.6463 -2.5639
2.0482 8.5461 -2.6609
-0.5017 3.4802 4.2545
-0.6011 3.4838 4.2307
-0.5252 3.5009 4.0518
1.6314 6.1771 4.9861
1.7205 6.1784 4.9393
1.6549 6.3154 5.0206
-7.2963 15.5811 2.4981
-7.4066 15.5757 2.4601
-7.3615 15.5479 2.6224
-0.3496 6.1941 5.5685
-0.2493 6.1978 5.6036
-0.3497 6.3376 5.6312
-8.5836 10.3636 2.4371
-8.5648 10.3181 2.5272
-8.4768 10.454 2.5776
-4.1852 9.8529 -2.1592
-4.1852 9.9949 -2.1418
-4.0848 9.995 -2.1504
5.5101 5.2106 0.2218
5.5585 5.3552 0.2209
5.5733 5.2157 0.3198
-0.4105 3.8557 2.318
4.4219 8.3303 2.517
4.3832 8.3207 2.6318
4.385 8.1834 2.6268
-5.252 5.8146 2.616
-5.2253 5.6726 2.5928
-5.2317 5.7382 2.6618
2.4593 5.7794 4.4219
2.3852 5.7789 4.4903
-8.9476 14.0666 3.2176
-8.9404 14.0678 3.3178
-8.9323 14.203 3.2158
2.2581 9.4628 -2.218
2.3523 9.4399 -2.1928
2.2391 9.3257 -2.271
3.755 5.8874 -0.8725
3.8215 6.0321 -0.874
3.7955 5.8894 -0.7737
0.708 3.6561 -0.5755
0.732 3.5141 -0.44
0.5906 3.5687 -0.3317
0.8173 8.3289 5.5812
-5.0531 3.895 -1.1562
-5.148 3.8472 -1.1583
-5.1542 3.8944 -1.1468
-0.7816 8.5488 -3.7791
-0.6817 8.5479 -3.7655
-5.178 11.5481 3.3786
-5.2491 11.3899 3.4921
-5.1492 11.3914 3.4816
-7.028 18.0333 -5.2262
-7.1016 17.9813 -5.1082
-6.9513 17.974 -5.1989
2.6638 6.1985 -2.2605
2.6736 6.0663 -2.2785
2.5598 6.1049 -2.3646
5.8968 6.9132 0.8135
5.9034 6.983 0.9451
5.9314 6.9155 0.9143
-1.6468 12.5926 2.5456
-1.7548 12.4749 2.6551
-1.6292 12.5122 2.7003
1.3452 12.8957 0.1813
1.3184 12.9339 0.3137
1.4383 12.8699 0.2148
-8.2367 9.3961 3.2171
-8.3016 9.3932 3.1404
2.2681 5.498 4.4937
2.1688 10.2085 -2.0078
2.2602 10.18 -1.9777
2.1598 10.091 -2.0824
-5.6238 11.5455 3.6098
-5.6481 11.3914 3.5707
-5.5498 11.3948 3.5405
-6.4484 8.0458 4.3044
-6.4495 7.8961 4.2203
-6.3488 7.8993 4.2429
-4.8476 11.6631 3.2033
-4.7494 11.6586 3.1974
-4.8746 11.8344 3.1163
-7.4262 15.5148 2.7465
-7.5369 15.5134 2.709
-7.5035 15.4671 2.8699
-0.2491 7.1825 5.8041
-0.3494 7.1834 5.8177
-0.3497 7.04 5.7424
-4.3503 5.4828 3.9279
-4.4501 5.621 3.9018
-4.4529 5.4777 3.8815
-1.217 16.5481 -1.4243
-1.2691 16.6905 -1.5011
-1.3558 16.6929 -1.4518
-4.2121 15.9153 -1.0343
-4.2133 16.0667 -1.0709
-4.111 15.9177 -1.082
4.249 5.5585 3.2118
4.1496 5.5574 3.2063
4.149 5.4183 3.224
-0.5365 3.8713 2.6395
-0.6406 3.8667 2.6223
4.3059 8.7193 2.7179
4.3678 8.5938 2.6201
4.3438 8.7443 2.6153
-3.5665 15.6121 -1.0427
-3.6789 15.6481 -1.0544
-9.232 12.6938 3.0259
-9.2072 12.8303 3.0246
-9.2242 12.8315 2.926
2.5846 10.7916 -1.4327
2.5781 10.679 -1.5117
2.4838 10.7021 -1.5368
-1.9778 7.5693 -3.9047
-1.8776 7.5695 -3.9002
2.3448 3.5008 1.0144
2.254 3.5211 0.9782
2.2825 3.4456 0.8664
1.1529 11.9123 3.6147
1.1126 12.0476 3.5576
1.0522 11.9127 3.6469
-4.7822 10.9884 -1.8362
-8.61 8.0568 0.8504
-8.6244 8.1918 0.8493
-8.615 8.1896 0.7488
-3.8656 5.9195 -1.1476
-3.7657 5.9199 -1.1643
-3.765 5.7742 -1.1262
-6.3869 17.0945 -4.7601
-6.3558 17.0962 -4.8592
-6.4512 17.2574 -4.8564
-1.7504 11.4096 3.8714
-1.8509 11.4097 3.8596
1.3195 8.7879 -3.0599
1.281 8.9182 -3.0491
1.3702 8.8871 -3.0147
3.5422 10.0763 3.384
3.6036 10.0737 3.2976
3.5092 10.2085 3.3349
-6.5586 3.3372 0.0881
-6.6581 3.3413 0.0645
-6.8157 18.0556 -5.4371
-6.882 18.0176 -5.3179
-6.7405 17.9923 -5.4108
-6.2923 14.9038 -1.858
-6.3041 14.9018 -1.958
-6.2529 15.0617 -1.9578
2.3183 5.7796 4.5685
2.2964 5.641 4.5371
1.9864 11.968 -0.897
2.0805 11.9446 -0.8725
1.9907 11.877 -1.0004
4.9206 5.116 2.8795
4.9557 5.2598 2.9319
4.8469 5.1147 2.9483
-6.3677 16.2484 -2.2519
-6.412 16.2494 -2.1245
-6.3534 16.1573 -2.1028
1.2499 11.1251 3.9269
1.1501 11.1256 3.9273
1.1504 10.9883 3.9713
-2.6177 3.9539 5.4111
-2.5472 4.0078 5.4141
-2.6109 4.0921 5.4007
-1.2883 16.5453 -1.351
-4.1806 8.8447 -2.2023
-4.181 8.9947 -2.2738
-4.0804 8.8495 -2.2479
0.4511 6.7497 5.5789
0.4505 6.8882 5.5725
0.3511 6.7509 5.5903
-4.7499 7.1841 4.106
-4.7012 7.1051 4.0996
-4.6486 7.19 4.1525
5.4159 6.4861 2.7274
5.3572 6.5095 2.7482
5.3536 6.3543 2.8124
-2.8513 5.5964 3.6416
-2.8504 5.4563 3.6376
-2.7701 5.4927 3.6846
-6.4933 14.5142 -1.6034
-6.5542 14.5055 -1.6903
-6.4138 14.6153 -1.6991
-3.5782 8.7199 -2.4099
-3.5818 8.8637 -2.4178
-3.4825 8.7233 -2.4561
-8.665 10.6304 0.9372
-8.6514 10.6289 0.8376
-8.6994 10.4951 0.8384
-2.4606 3.3636 -2.4316
-2.5647 3.3594 -2.4483
-2.5008 3.3486 -2.6134
0.6986 8.1888 5.584
0.7994 8.192 5.553
0.716 8.3259 5.6106
-2.332 3.917 3.8473
-2.44 3.904 3.8365
-2.3778 3.8965 3.677
-0.7814 8.6863 -3.7202
-0.6819 8.6847 -3.7049
-0.1409 12.836 2.7894
-0.2401 12.8537 2.7551
-0.2141 12.7727 2.9143
-6.1484 15.8425 -3.1588
-6.1499 15.8424 -3.0588
-9.2697 11.7351 1.1308
-9.2911 11.8706 1.1306
-9.2687 11.8696 1.0306
1.6855 10.4974 -1.9169
1.688 10.4029 -2.0161
1.5857 10.4091 -2.0231
-7.3319 15.3662 3.2299
-7.4143 15.3026 3.3531
-7.3145 15.2886 3.3897
-6.3134 17.7233 -5.6753
-6.3628 17.7112 -5.5645
-6.312 17.6032 -5.5462
-8.2398 9.5314 3.2156
-8.3036 9.5288 3.1382
3.5471 8.6223 3.9086
3.5534 8.7572 3.9178
3.4843 8.6244 3.9936
2.0878 11.7607 -1.075
1.9954 11.7871 -1.1041
0.1501 5.9113 5.5077
0.2503 5.9098 5.5109
0.1503 6.0584 5.6051
4.9858 5.4011 2.9762
4.9048 5.3998 3.0349
-6.328 16.2306 -2.382
-6.309 16.1515 -2.2455
-9.2314 13.2364 1.8222
-9.218 13.2348 1.7224
-9.2767 13.0992 1.7231
-4.8561 16.4 0.4932
-4.7493 16.3748 0.5428
-4.7302 16.443 0.4971
-1.451 17.1282 -1.7664
-1.4903 17.2738 -1.8231
-1.5359 17.1251 -1.7148
-4.9702 7.0866 -1.5062
-5.0711 7.0874 -1.5199
-4.9718 7.2308 -1.564
0.5496 11.5538 3.9799
0.4496 11.692 3.9168
-1.4735 3.481 4.758
-1.5331 3.491 4.9121
-1.5808 3.4693 4.7446
4.4058 8.6088 2.5153
4.3853 8.7476 2.517
-6.6989 13.6993 -0.8098
-6.7979 13.7002 -0.8171
-6.6993 13.8471 -0.7908
2.4788 5.9158 4.4512
2.4032 5.916 4.5176
-3.6373 17.6071 -0.6836
-3.7191 17.5481 -0.857
-3.7924 17.5153 -0.7397
-1.9783 7.7097 -3.9016
-1.8783 7.709 -3.8902
-8.6182 10.7654 0.9363
-8.5963 10.9007 0.9354
-8.6179 10.7645 0.8365
-2.3966 3.3528 -2.5967
1.9691 5.5014 4.7657
1.9959 5.6413 4.8072
1.8982 5.6398 4.8417
-7.5598 15.1334 -2.1879
-7.4889 15.2721 -2.1888
-7.5474 15.1328 -2.2882
-2.384 9.6869 -2.4703
-2.4899 9.6847 -2.468
-2.461 9.8443 -2.4327
-3.2107 16.2239 -1.4499
-3.2109 16.3743 -1.5096
-3.1111 16.2246 -1.4626
-6.5552 15.5937 2.4666
-6.6553 15.6088 2.4318
-6.6102 15.5727 2.5928
5.2323 7.2436 0.7299
5.1394 7.2657 0.8044
5.2544 7.2834 0.848
-6.6192 3.3488 0.2453
-6.7185 3.3533 0.221
-8.3726 15.1367 0.5221
-8.2132 15.265 0.5763
-8.2896 15.1378 0.4226
-7.2063 16.6594 -1.9806
-7.2842 16.5906 -1.868
-7.1739 16.5925 -1.8296
-7.3938 13.2552 -0.7663
0.1225 3.5912 0.298
0.0409 3.5682 0.4881
0.0076 3.6947 0.3665
-0.3504 5.8958 5.4018
-0.3491 6.0529 5.4719
-0.4497 5.9003 5.4323
1.4691 8.208 5.297
1.4411 8.3373 5.2545
1.3671 8.2039 5.3236
-6.4599 16.2478 -1.9978
-6.4001 16.1566 -1.976
-8.7168 11.039 1.8362
-8.8961 11.1861 1.8336
-8.7443 11.0454 1.7341
-3.9456 3.4728 4.0613
-3.9886 3.514 4.1914
-4.0486 3.4691 4.0424
-7.0708 3.9589 0.0643
-7.0865 3.8439 0.0437
-7.1122 3.8817 0.1935
-1.5214 17.4214 -1.8671
-1.6044 17.4209 -1.8116
-1.5785 17.2748 -1.7746
-5.0684 6.7837 -1.3239
-5.0692 6.9379 -1.4311
-4.9676 6.7879 -1.3597
0.05 6.6163 5.6408
0.1505 6.6158 5.6331
0.0505 6.7545 5.6348
-3.3819 3.458 4.0191
-3.4851 3.4543 4.0002
-3.4213 3.4523 3.8401
5.2537 6.5117 2.7938
-2.7512 5.6023 3.7009
-2.6987 5.4947 3.7541
-2.7021 5.6343 3.7536
2.0622 11.9357 3.3528
1.971 11.9321 3.3959
2.0191 11.7982 3.4648
-8.5622 10.7687 2.0355
-8.5748 10.9049 2.0349
-8.5912 10.7692 1.9368
-8.7197 10.2223 0.6426
-8.672 10.2198 0.5424
-8.7069 10.0891 0.5377
1.0651 12.1836 3.4911
0.9692 12.1836 3.5295
1.0166 12.0462 3.5947
-7.4336 15.411 -2.1906
-7.4213 15.4103 -2.2907
-7.4776 15.2715 -2.2892
3.1351 10.9263 -0.9764
3.1287 10.8108 -1.0528
3.0436 10.8504 -1.0954
-0.7827 8.8239 -3.6782
-0.6823 8.8234 -3.6549
-6.4394 4.1845 2.8672
-6.3373 4.3131 2.8668
-6.4004 4.1791 2.767
-6.1593 16.0001 -3.1591
-6.1612 16 -3.059
-6.7092 15.5954 2.5585
-6.7683 15.5656 2.6832
-6.6692 15.55 2.7181
2.2821 8.8977 -2.4207
2.3755 8.8747 -2.3943
2.255 8.7385 -2.4588
-0.0794 8.6772 -3.557
0.0189 8.6735 -3.5153
0.0192 8.5363 -3.5651
-7.1779 15.4685 2.9809
-7.2543 15.415 3.1045
-7.1497 15.4091 3.1406
-8.2352 9.6662 3.2069
-8.2991 9.6636 3.1292
-1.3848 12.6055 -0.3514
-1.3726 12.5368 -0.4769
-1.4947 12.5073 -0.4417
4.5068 9.1791 1.5163
4.499 9.1777 1.6155
4.517 9.0388 1.6163
4.8778 5.2564 2.9943
-8.784 10.5023 1.4367
-8.7237 10.6355 1.4359
-8.7251 10.6353 1.3364
1.2503 10.9886 3.9829
-2.4515 8.111 5.4033
-2.4603 8.25 5.4081
-2.5146 8.2462 5.3211
0.1523 6.8898 5.6069
0.051 6.8929 5.6364
-1.4137 3.471 4.6036
-1.5171 3.4672 4.5846
4.3598 8.887 2.5167
4.3116 8.8838 2.6177
-2.9161 8.0649 4.4573
-2.8718 8.0695 4.5539
-2.9316 8.204 4.4659
-2.7173 16.9704 -1.8358
-2.7173 17.1194 -1.8593
-2.6155 16.9713 -1.8702
-8.8267 10.2346 1.9362
-8.7926 10.2339 2.0364
-8.7603 10.3683 1.9363
-1.9789 7.8502 -3.9042
-1.879 7.8491 -3.8837
3.8454 8.1427 -1.3742
3.9095 8.1475 -1.2753
3.8537 8.0057 -1.2717
-2.262 18.1624 -1.171
-2.3254 18.1611 -1.087
-2.3502 18.0157 -1.123
-4.1346 4.7065 -1.398
-4.015 4.7343 -1.4266
-4.1064 4.6666 -1.5642
-9.0471 13.5055 1.3217
-8.989 13.6442 1.3225
-9.0365 13.5051 1.2215
-6.7052 16.6375 -2.376
-6.6291 16.5749 -2.3475
-6.5818 16.5764 -2.4737
1.5055 12.3588 -0.7219
1.5157 12.2808 -0.8362
1.4212 12.3033 -0.8602
-0.0827 8.5392 -3.6244
-6.684 3.353 0.4077
-6.7832 3.3576 0.3836
-7.2265 15.3589 3.2663
-0.3358 11.894 -1.4066
-0.2256 11.9004 -1.4149
-0.3379 11.7905 -1.4962
0.1501 5.7649 5.4367
1.5287 7.946 5.3812
1.5023 8.0777 5.3451
1.4262 7.9423 5.406
-6.5095 16.2442 -1.872
-6.449 16.1538 -1.8498
-8.7845 10.502 1.337
-4.1766 16.2365 0.4428
-4.1535 16.3761 0.4447
-4.2501 16.3766 0.491
-2.513 8.1077 5.3237
-3.6101 16.0724 -1.3212
-3.6114 16.2217 -1.3731
-3.5097 16.074 -1.3448
-8.7462 12.3933 -0.0724
-8.7958 12.395 0.0269
-8.7448 12.5307 -0.0719
6.0746 6.2341 0.915
6.0486 6.2317 0.8155
6.0609 6.3713 0.9153
3.4502 4.5413 3.0184
3.5238 4.4312 2.9693
3.5496 4.5408 3.0344
-4.5304 5.8783 3.8737
-4.6151 5.879 3.8143
-4.6053 5.7401 3.8095
-1.1499 16.4138 -1.5009
-1.1994 16.4096 -1.3967
-1.1946 16.3588 -1.4675
-8.6762 8.4687 1.848
-8.6829 8.4707 1.7475
-8.6501 8.3325 1.7486
3.8747 8.2837 -1.3771
1.8612 12.7837 1.2244
1.8234 12.8007 1.3534
1.9472 12.7423 1.2567
-7.458 15.5493 -2.1916
-7.4323 15.5495 -2.2908
-1.7248 11.4664 -1.7444
-1.7227 11.3695 -1.842
-1.8292 11.3707 -1.8429
-0.7829 8.9644 -3.6429
-0.6829 8.9633 -3.6182
-8.6242 14.327 0.816
-8.5594 14.3251 0.7191
-8.6045 14.1863 0.7201
-8.6463 10.7749 1.6388
-8.6578 10.9066 1.6347
-8.6583 10.77 1.5354
-6.6536 16.6455 -2.5002
2.947 8.011 -2.1021
2.9276 7.8727 -2.1589
2.846 7.9188 -2.2084
-0.0806 8.8164 -3.5184
0.0177 8.8136 -3.4888
-7.0732 15.4624 3.0169
-8.2199 9.8001 3.1875
-8.2856 9.7982 3.1115
-2.1855 11.8022 -1.292
-2.2877 11.806 -1.2966
-2.2858 11.9091 -1.2057
0.4502 4.5945 4.842
0.45 4.7477 5.0129
0.3502 4.744 5.0039
1.3999 8.0737 5.3704
-2.0961 3.8099 1.8336
-2.1634 3.8095 2.001
-2.2048 3.7971 1.8232
-3.1635 5.1114 -1.3365
-3.2139 5.1169 -1.2424
-3.1901 5.2553 -1.2456
1.251 10.5746 4.365
1.2512 10.7097 4.2147
1.1515 10.5777 4.3681
-2.3011 5.8018 4.3384
-2.3061 5.9412 4.338
-2.3624 5.9367 4.2518
1.9405 7.2728 5.0939
2.0347 7.276 5.0529
1.9691 7.4125 5.1358
-8.7938 12.6705 0.0269
-8.7334 12.6682 -0.0727
-4.868 13.7079 0.8404
-4.8756 13.7056 0.741
-4.8947 13.8616 0.8399
-1.6406 3.4792 4.8991
-5.5197 13.8069 -0.3097
-5.553 13.7483 -0.349
-5.5881 13.8039 -0.3867
2.1776 11.5313 3.5173
2.14 11.6687 3.4649
2.0884 11.5302 3.5638
-8.7689 8.6109 1.847
-6.8905 11.3678 -0.9753
-6.8928 11.5103 -0.8921
-6.7917 11.5123 -0.9397
-1.9799 7.9911 -3.9074
-1.8798 7.9903 -3.8941
3.7712 7.9959 -1.3751
1.7826 12.8119 1.4807
1.8691 12.7724 1.5127
1.9097 12.7602 1.3858
-0.121 10.5335 4.4053
-1.827 11.4743 -1.7523
-9.1359 11.3353 1.4339
-9.2309 11.4683 1.4325
-9.2192 11.4676 1.333
-6.4784 4.4847 0.9137
-6.5738 4.3613 1.0124
-6.5002 4.36 1.0803
-6.757 16.6262 -2.2518
-6.6822 16.563 -2.2232
2.8698 8.0653 -2.1603
-6.7439 3.3648 0.5641
-6.8433 3.3693 0.54
-0.526 4.0954 4.8301
-0.5345 4.2334 4.8171
-0.6312 4.2299 4.8531
1.1144 10.4428 -2.004
1.2667 10.4052 -2.0179
1.1588 10.2988 -2.1031
4.6138 7.9232 0.5192
4.6205 7.9235 0.6184
4.6184 7.7832 0.6189
1.5424 7.813 5.3988
1.4402 7.8097 5.4252
-2.5883 3.4793 4.5205
-2.6918 3.4755 4.5016
-2.6323 3.4658 4.3474
-6.3602 15.1642 3.5758
-6.4599 15.064 3.6896
-6.351 15.1152 3.6187
-8.8668 14.1939 1.2197
-8.9282 14.1954 1.3243
-8.8758 14.3311 1.215
-4.0521 16.525 0.3793
-4.0504 16.6738 0.354
-4.1498 16.6749 0.3695
-2.2096 6.2306 4.5166
-2.2326 6.3746 4.5369
-2.2859 6.3703 4.4491
2.0542 7.4123 5.0829
2.0584 7.5483 5.0892
-8.8043 12.5329 0.0279
-2.5189 15.6576 -0.7692
-2.4133 15.7302 -0.9057
-2.3402 15.7317 -0.8347
-1.4182 3.7811 5.1097
-1.519 3.914 5.1463
-1.5206 3.7759 5.138
-3.3661 4.2307 4.8787
-3.4222 4.2272 4.7922
-3.4555 4.0927 4.8293
2.9145 4.9176 3.6626
2.8309 4.9176 3.7172
2.8111 4.7762 3.6874
-8.6418 8.3353 1.8473
-7.1904 10.3673 -1.267
-7.2874 10.362 -1.2238
-7.1907 10.5086 -1.2034
3.9387 8.2888 -1.2779
1.6036 8.0799 5.3142
-7.6017 15.688 -2.1925
-7.5092 15.6856 -2.2942
-1.9808 11.9865 -1.0875
-1.8781 11.9777 -1.0794
-1.9787 11.8912 -1.1868
-3.3207 6.0952 -1.4594
-3.2406 5.963 -1.3405
-3.3669 6.0734 -1.2791
-8.9089 9.5588 0.9425
-8.9152 9.5601 1.0431
-8.9204 9.6947 0.9419
-9.1824 12.8307 3.2243
-9.1714 12.8313 3.3244
-9.1385 12.9679 3.2235
-7.1798 15.5398 -4.0908
-7.1595 15.5396 -4.1913
-7.1928 15.3998 -4.1903
-3.6614 4.9309 -1.2399
-3.662 5.0581 -1.0756
-3.5618 5.0598 -1.0883
-0.7606 12.8788 -0.0526
-0.7308 12.834 -0.209
-0.8446 12.8164 -0.1896
-2.8458 7.893 -3.5566
-2.8517 8.0355 -3.5629
-2.7791 7.9667 -3.6342
-0.6284 4.0907 4.8585
-5.4353 15.5034 1.2744
-5.3654 15.4299 1.297
-5.2893 15.4865 1.1824
-8.1955 9.9332 3.159
-8.2659 9.931 3.0884
1.6382 8.888 -2.8162
1.5583 8.9361 -2.8685
0.5507 6.4747 5.6096
0.6513 6.4715 5.5748
0.5517 6.6112 5.5806
-4.0769 8.1197 -2.0308
-4.1767 8.1209 -2.0403
-4.0769 8.2652 -2.082
-7.1928 14.8635 -3.504
-7.1716 14.8756 -3.6753
-7.1101 14.8774 -3.6959
-3.4877 10.5695 -2.0446
-3.4878 10.713 -2.0218
-3.3876 10.5703 -2.0566
-4.1509 16.5252 0.4211
-1.995 5.5385 4.7449
-1.9447 5.4231 4.7703
-1.9277 5.5431 4.82
1.9175 6.4523 4.8747
1.9408 6.59 4.9094
1.8395 6.4529 4.9378
-8.755 12.805 0.0278
-8.7045 12.8039 -0.0696
4.1506 4.9929 3.2509
4.2505 4.9941 3.2438
4.1499 5.1385 3.2599
0.9596 3.5472 -0.9876
0.9087 3.5827 -0.8426
0.8536 3.6675 -0.9318
-2.2457 5.2413 4.3531
-2.2418 5.387 4.4018
-2.3422 5.3749 4.2499
1.6141 8.475 5.1557
1.5178 8.4722 5.1916
1.5425 8.3401 5.2261
-8.7789 8.6123 1.7469
-7.2901 10.5047 -1.1511
-7.2899 10.646 -1.0877
-7.1875 10.648 -1.1476
-1.981 8.1319 -3.9095
-1.8806 8.1321 -3.9086
-9.0856 14.471 1.5167
-9.0338 14.4712 1.4154
-9.036 14.3336 1.4202
1.7444 12.8281 1.6091
1.8313 12.7887 1.6415
1.8109 5.9116 4.8901
1.8096 6.0458 4.8896
1.7085 6.0422 4.9209
5.329 6.2107 -0.2186
5.4102 6.1693 -0.1721
5.3145 6.0843 -0.288
-9.4418 12.146 1.7283
-9.4441 12.1464 1.828
-9.4451 12.2808 1.7269
-8.6543 10.6355 1.8353
-8.6282 10.6347 1.9345
-8.6289 10.771 1.8344
-6.8135 16.6058 -2.1287
-6.7367 16.5482 -2.0999
-7.2048 15.4003 -4.0902
1.0833 13.0856 1.5089
1.0372 13.0878 1.6344
1.1721 13.0528 1.5412
2.0734 12.0306 -0.7653
1.9829 12.0602 -0.7973
2.6142 8.5936 -2.3019
2.5836 8.4484 -2.3549
2.5021 8.5012 -2.4076
4.1169 8.9963 2.9736
4.1088 9.1298 2.9629
4.0532 9.1329 3.0651
-3.7846 9.7153 -2.2431
-3.8845 9.714 -2.2305
-3.7852 9.8576 -2.2189
0.3512 4.5936 4.83
-4.4094 15.6163 -0.8536
-4.3088 15.6177 -0.8905
-4.3078 15.4691 -0.8142
1.4368 7.6749 5.4227
1.5326 7.6771 5.386
-7.9249 7.2334 2.0733
-7.9754 7.2004 1.9147
-7.9075 7.1383 1.9831
-3.2832 9.2968 -2.4079
-3.3831 9.2955 -2.3961
-3.2841 9.4393 -2.3854
-4.05 16.823 0.2867
-4.1499 16.8206 0.2963
-8.0383 11.899 4.9226
-7.9737 11.9028 4.9952
-8.0633 12.0347 4.9427
1.954 6.7251 4.9298
1.8738 6.7273 4.9897
-0.2498 7.8797 5.8268
-0.3501 7.8805 5.8211
-0.3502 7.7442 5.857
-3.3425 3.4634 4.1976
-3.398 3.4809 4.3458
-3.4416 3.4676 4.1729
-2.68 5.2263 3.8847
-2.609 5.2279 3.9552
-2.6434 5.3594 3.8445
3.3508 9.4239 3.9825
3.4236 9.4243 3.9107
3.3235 9.5553 3.9434
-8.8561 8.7538 1.8458
-8.8602 8.7516 1.7464
-7.7849 11.932 -0.6458
-7.6876 11.9334 -0.6883
-7.6856 11.7877 -0.6591
-6.3913 11.101 -1.3948
-6.4903 11.0966 -1.3301
-6.392 11.2438 -1.3331
3.4287 7.0023 3.8995
-7.7642 15.8287 -2.1926
-7.7158 15.8311 -2.2906
-0.0693 3.6794 0.5499
-6.389 10.2518 -1.7614
-6.3885 10.3946 -1.7218
-6.2903 10.3986 -1.7642
-6.2392 15.2158 -2.6581
-7.1652 15.6794 -4.0908
-7.145 15.679 -4.1917
0.9904 13.0871 1.7598
1.0869 13.0662 1.7951
1.1295 13.0595 1.6681
-1.3019 11.5677 -1.6537
-1.3193 11.434 -1.7113
-1.4118 11.5602 -1.6449
-6.3046 3.4582 1.7733
-6.2473 3.4495 1.8379
-6.3119 3.5715 1.8954
-2.0302 12.4709 2.4106
-2.1267 12.3736 2.5234
-2.0006 12.4102 2.5677
-7.174 15.6144 1.2297
-7.2173 15.6265 1.3598
-7.0638 15.6126 1.2691
-8.1725 10.0671 3.1319
-8.2419 10.0645 3.0603
1.4467 9.6264 4.86
1.4581 9.5317 4.9325
1.5359 9.5343 4.8703
1.2502 10.3142 4.6342
1.2507 10.443 4.5048
1.1514 10.312 4.6431
1.2136 10.7265 -1.9273
1.3132 10.725 -1.8999
1.3046 10.6823 -1.9116
-7.7103 6.8989 0.8177
-7.7627 6.9287 0.9577
-7.8379 6.9824 0.8951
-8.6041 10.9124 1.0359
-2.4092 5.5139 4.1705
-2.3519 5.5184 4.2557
-2.4133 5.6531 4.1696
1.9839 7.0012 4.9762
1.8975 6.9987 5.0266
1.8903 6.8639 5.016
-8.7025 12.9415 0.0309
-8.6335 12.9395 -0.0699
-0.2497 8.015 5.7729
-0.2499 8.1515 5.7496
-0.3501 8.1513 5.747
0.8316 3.5687 -0.6578
-7.1479 16.7875 -2.2517
-7.2229 16.736 -2.1343
-7.1237 16.7165 -2.099
2.8563 4.6301 3.5752
2.7859 4.6333 3.65
2.7541 4.4881 3.6026
-7.7878 11.7832 -0.5993
-7.3501 11.7559 5.2798
-7.3507 11.8971 5.3192
-7.4509 11.8967 5.2926
-1.9804 8.2718 -3.9016
-1.8813 8.2729 -3.9075
1.9696 3.9404 4.222
1.8549 3.7949 4.2303
2.0103 3.7962 4.1037
1.7032 12.8388 1.7366
1.7866 12.7935 1.7674
-2.0896 10.7686 -2.2044
-2.1998 10.7603 -2.1959
-2.1864 10.8885 -2.1316
-8.676 10.7707 1.4355
-8.6667 10.9085 1.4352
-8.6698 10.9058 1.3347
-6.8719 16.5823 -2.0064
-6.7937 16.5269 -1.9772
-1.1518 6.7387 5.4571
-1.1505 6.8808 5.4897
-1.251 6.8751 5.4329
2.654 10.4204 -1.6356
2.7453 10.3904 -1.6034
2.6448 10.3016 -1.7087
0.614 11.0185 -2.0234
0.5114 11.017 -2.0279
0.6023 11.1527 -2.0041
-4.1365 15.0284 -0.5098
-4.0421 15.0087 -0.4695
-4.129 14.9153 -0.3634
-7.0877 15.5921 0.9697
-7.1309 15.6055 1.0997
-6.9835 15.5896 1.0068
-5.3544 4.4416 -0.8093
-5.3549 4.5819 -0.7344
-5.254 4.587 -0.7837
-0.4495 6.1963 5.5772
-0.5497 6.1946 5.5989
-0.5496 6.0529 5.5599
-5.2775 8.2662 -2.1554
-5.3777 8.2658 -2.1558
-5.2782 8.4079 -2.1578
1.4312 7.5399 5.4093
1.5141 7.5403 5.3557
-7.7814 6.964 0.7418
-8.6782 10.632 1.0369
-8.7232 10.4968 0.9384
-4.0568 17.1048 0.0227
-4.1599 16.9934 0.1292
-4.0527 16.9768 0.177
-2.7805 7.4956 4.3393
-2.8243 7.6398 4.3787
-2.8739 7.6371 4.2879
1.9674 6.8636 4.9508
-0.1483 6.0607 5.5858
-0.1494 6.2006 5.6412
0.6418 3.4754 -0.2361
-4.5473 6.7571 4.0115
-4.549 6.902 4.078
-4.6501 6.8968 4.0297
-6.3497 10.9514 3.7832
-6.2496 10.9755 3.7766
-6.2689 11.0949 3.7276
-8.9125 8.8906 1.8447
-8.9176 8.8886 1.7454
-7.7877 12.0773 -0.6633
-7.6866 12.0803 -0.711
-7.4504 11.7561 5.2662
3.3627 5.5705 -1.1701
3.4546 5.7178 -1.1728
3.4077 5.5693 -1.0749
-5.5487 4.0033 4.6971
-5.4499 4.0033 4.6966
-5.4476 4.1331 4.6572
-7.8217 15.9705 -2.1925
-7.8089 15.9705 -2.2918
-2.8626 4.6345 -2.6967
-2.9871 4.5958 -2.727
-2.9934 4.6897 -2.6159
-8.9579 13.6441 1.2219
-3.773 7.3931 -1.7874
-3.6733 7.3962 -1.8256
-3.6727 7.2527 -1.8001
2.1905 8.927 -2.4507
2.1686 8.7818 -2.5002
2.0842 8.8215 -2.5449
-5.1604 5.6027 -0.8398
-5.0614 5.6095 -0.9173
-5.0607 5.4637 -0.8787
2.417 8.0923 4.9097
2.406 8.2258 4.8941
2.3224 8.2254 4.9499
-7.2654 15.621 1.4885
-7.1497 15.6283 1.5292
-7.1069 15.6192 1.3995
-8.1498 10.2013 3.1053
-8.2212 10.1996 3.0352
-2.6219 16.2456 -0.4725
-2.7221 16.3934 -0.6163
-2.7189 16.2441 -0.4373
-0.0486 6.8933 5.6515
-0.0484 7.0348 5.6848
1.3766 10.5146 -1.9383
1.2778 10.5278 -1.9527
-7.8234 6.9418 1.1104
-7.8934 7.0027 1.042
-8.6966 14.8754 0.8249
-8.6153 14.8758 0.721
-8.6166 14.7397 0.7214
-5.1917 5.4526 2.3615
-5.2081 5.5227 2.4483
-5.1876 5.5074 2.2847
2.0075 7.1352 5.0138
1.9083 7.1347 5.0454
-8.6473 13.0788 0.0289
-8.576 13.0763 -0.0714
-0.2449 6.0586 5.5365
0.8956 3.6158 -1.0639
0.2759 13.0985 2.0715
0.2119 13.0671 2.1932
0.3215 13.0705 2.2323
3.3965 9.5561 3.8718
3.3661 9.686 3.83
3.2911 9.6871 3.8968
-7.3509 12.0392 5.3561
-7.4497 12.0396 5.3363
-1.9822 8.4109 -3.8707
-1.8821 8.4122 -3.8831
3.5564 5.8664 -1.1732
3.6121 5.8688 -1.0768
3.5467 5.7322 -1.0672
1.6608 12.8469 1.8636
1.7403 12.7944 1.8931
-3.0549 4.7959 -2.4279
-2.9008 4.7861 -2.5051
-3.0094 4.77 -2.489
-4.3041 3.3727 -0.0289
-4.4079 3.3681 -0.0462
-4.34 3.3681 -0.2152
-6.497 15.6112 2.3415
-6.6016 15.6182 2.3046
-1.151 7.023 5.5396
-1.2483 7.0199 5.486
-0.0473 9.7253 -2.899
0.0515 9.714 -2.885
-0.0335 9.6529 -3.0224
-5.1622 5.4543 -0.7928
5.4745 6.6148 2.6365
5.4358 6.7437 2.5801
5.3872 6.6145 2.6849
2.7796 8.3567 4.5536
2.7105 8.3578 4.6296
2.7053 8.2226 4.6209
1.2481 9.496 5.0413
1.2469 9.6282 4.9406
1.1488 9.6325 4.958
-6.5069 4.1615 -0.5228
-6.4228 4.2909 -0.4243
-6.3856 4.2392 -0.5068
-5.5462 11.5432 3.5476
-8.7201 14.7399 0.826
-3.2623 5.0667 -1.1522
-3.362 5.0597 -1.076
-3.2627 5.2023 -1.0763
-2.438 16.8291 -1.0859
-2.4717 16.9741 -1.1349
-2.5281 16.8282 -1.0406
-0.4486 11.8295 3.8989
-0.5486 11.8301 3.8756
-0.5487 11.6904 3.9471
-0.9667 3.9418 3.7482
-1.0751 3.9289 3.7377
-1.0125 3.9213 3.5777
-2.0074 3.8948 3.5755
-2.1115 3.8902 3.5586
-2.0488 3.8826 3.3987
-6.38 11.0914 3.7425
-8.9633 9.2955 1.8431
-8.9417 9.4294 1.8425
-8.9396 9.4292 1.7425
-7.7881 12.224 -0.6629
-7.687 12.2267 -0.7106
-7.8067 16.1102 -2.1933
-7.8186 16.1095 -2.2935
-2.9143 4.2089 -2.9601
-2.9993 4.3612 -2.9046
-2.8771 4.365 -2.9005
3.1224 8.7165 -1.9818
3.1143 8.8516 -1.96
3.2205 8.7123 -1.9274
-4.236 3.3726 -0.1981
1.585 9.5972 -2.3628
1.5747 9.4755 -2.4319
1.4824 9.5027 -2.4605
-5.1602 5.0217 -0.7418
-5.1565 5.1609 -0.7365
-5.058 5.0283 -0.8138
1.6571 9.4021 4.869
1.6238 9.5337 4.8209
-6.757 18.0805 -5.5597
-6.8351 18.1259 -5.5895
-8.1256 10.3354 3.0772
-8.1963 10.3331 3.0069
-6.0198 15.2175 3.3945
-6.1845 15.2018 3.4872
-6.0653 15.1084 3.5238
-0.4502 8.5656 5.7277
-0.35 8.5669 5.7293
-0.4498 8.7036 5.7127
1.3117 10.8671 -1.8721
1.4131 10.8667 -1.8382
1.4142 10.7244 -1.8655
1.5707 8.2103 5.2678
-7.8764 6.9657 1.2571
-7.9463 7.0254 1.189
-1.7438 12.7681 0.4693
-1.6194 12.8088 0.515
-1.5763 12.799 0.3857
-2.662 15.7614 -1.071
-2.5769 15.8564 -1.175
-2.5754 15.7476 -1.0214
-3.9657 5.7757 -1.1319
-3.9664 5.9223 -1.1677
1.6832 9.2698 4.9071
1.753 9.2684 4.8312
-8.6012 13.2159 0.0278
-8.5279 13.2127 -0.0702
-0.3487 12.1028 3.6954
-0.4493 12.1049 3.6746
-0.4491 11.9679 3.7877
0.794 3.6863 -0.7732
-8.0097 11.274 -0.2013
-7.9792 11.331 -0.2521
-7.8843 11.2725 -0.2835
-3.8446 16.6779 0.2394
-3.7534 16.8232 0.1753
-3.8488 16.8246 0.2369
-8.9637 9.295 1.7433
-7.2861 10.2198 -1.285
-1.9834 8.55 -3.8352
-1.8824 8.5508 -3.8563
-7.3507 12.1801 5.3565
-7.4515 12.1791 5.3319
1.61 12.839 1.988
1.6917 12.7898 2.018
-3.4003 10.89 -1.9287
-3.4947 10.9117 -1.9515
-3.4848 11.0331 -1.88
-5.8907 9.8341 -1.9581
-5.8882 9.9739 -1.9036
-5.7874 9.977 -1.9394
-4.3755 3.3642 0.145
-4.4753 3.3678 0.1214
3.8241 10.8427 2.1059
3.7825 10.8706 2.2248
3.8823 10.6965 2.2171
-1.1506 7.166 5.5867
-1.2459 7.1677 5.5408
-6.3079 17.626 -6.1362
-6.3393 17.8218 -6.0712
-6.2555 17.6839 -6.1167
-5.1611 5.3083 -0.754
-5.0619 5.3154 -0.8314
-5.0619 5.1705 -0.8066
-1.4359 10.2532 4.3374
-1.4496 10.4421 4.3241
-1.5501 10.3015 4.3279
2.8259 6.3629 -2.0797
2.7857 6.4313 -2.0961
2.7816 6.4993 -2.0879
-0.5529 12.6815 -0.6495
-0.5385 12.6096 -0.7729
-0.6454 12.6073 -0.7698
-0.3488 5.4851 5.4221
-0.3496 5.6219 5.401
-0.4494 5.4828 5.4005
4.4169 7.066 2.4561
4.4519 7.2181 2.3783
4.4051 7.2227 2.4849
-1.4446 12.8429 0.4348
-1.4935 12.7911 0.2622
-1.4741 12.9011 1.582
-1.6002 12.8658 1.5367
-1.5383 12.8676 1.7042
-8.5319 11.7662 4.8497
-8.4269 11.7693 4.8813
-8.4546 11.9028 4.9092
-7.3509 13.7262 4.9353
-7.1875 13.6886 4.8857
-7.2237 13.8308 4.8356
-0.8502 3.9101 3.4413
-0.9497 3.9136 3.4177
-0.8916 3.8977 3.2641
3.3116 7.9569 -1.8711
3.2247 8.0019 -1.9406
3.324 8.1403 -1.8901
-7.5295 15.636 -0.3533
-7.5645 15.6326 -0.4585
-7.6332 15.494 -0.3875
-6.2777 11.2367 3.7156
-6.367 11.2355 3.7621
-8.934 9.8351 1.8403
-8.9531 9.8355 1.7401
-8.9421 9.6997 1.741
-7.1879 10.2239 -1.3269
-7.77 16.251 -2.194
-7.7941 16.2504 -2.294
-2.2565 9.8325 -2.422
-2.2775 9.6868 -2.4693
-2.3589 9.8384 -2.428
-5.5899 10.9796 -1.7774
-5.5903 11.1216 -1.7263
-5.4893 11.1218 -1.7492
-6.2122 4.2962 2.6694
-6.1163 4.2858 2.5697
-6.2725 4.162 2.5703
3.0847 7.5144 -2.0734
3.0786 7.6548 -2.0806
3.1757 7.5219 -1.9756
-2.744 18.0304 -0.7157
-2.8512 18.0211 -0.6929
-2.7545 17.8709 -0.6741
-5.9205 15.5872 1.0949
-5.9694 15.5857 1.2237
-5.8709 15.5741 1.259
-8.098 10.4706 3.0458
-8.1686 10.4685 2.9749
0.852 7.0241 5.5532
0.7507 7.0265 5.5751
0.751 6.8847 5.5403
4.5556 7.8849 2.1795
4.516 7.892 2.304
4.5143 7.7555 2.2967
4.5131 6.4767 -0.09
4.4063 6.4827 -0.0963
4.4136 6.5958 -0.0072
1.4499 10.7111 4.2157
1.45 10.8488 4.0796
1.3505 10.8467 4.0767
0.7079 10.1453 -2.1277
-4.9213 13.8613 1.5398
-4.9382 13.8599 1.6392
-7.9245 6.9982 1.3968
-7.991 7.0649 1.3225
-1.7868 12.7784 0.5984
-1.6555 12.8252 0.6465
-6.3114 17.8334 -5.8358
-6.3438 17.9008 -5.9875
-6.382 8.9594 -1.8943
-6.2806 8.9601 -1.9025
-6.2808 8.8162 -1.9046
2.5639 9.2917 4.6012
2.6456 9.2917 4.5433
2.5481 9.4245 4.5788
-8.5523 13.3522 0.0289
-8.467 13.3487 -0.0689
-0.7872 3.9023 3.281
-5.1266 3.6081 4.6296
-5.1271 3.5648 4.5884
-5.0091 3.5896 4.598
-7.6714 15.4218 -0.4897
-7.6684 15.421 -0.3901
-9.2633 13.0966 1.4233
-9.2154 13.2321 1.4229
-9.2525 13.0961 1.3235
-6.8875 11.651 -0.8525
-6.7884 11.6524 -0.8807
-1.9834 8.6872 -3.7951
-1.8824 8.6887 -3.8293
-7.349 12.3206 5.3542
-7.4497 12.3196 5.3357
1.5624 12.8368 2.1133
1.6445 12.7885 2.1435
-3.2029 10.8616 -1.899
-3.3092 10.8613 -1.8992
-3.2881 11.004 -1.8487
-5.4897 11.2625 -1.673
4.1655 9.0085 -0.8772
4.0933 9.0037 -0.9791
4.1288 9.1466 -0.8777
-4.4517 3.3475 0.3255
-4.5514 3.3511 0.3022
-6.2391 15.4382 3.0173
-6.2104 15.3787 3.1746
-1.1503 7.3083 5.6218
-1.2504 7.3061 5.5985
-5.7588 15.8069 0.2023
-5.7325 15.7131 0.0944
-5.8897 15.6171 0.2104
2.1506 10.7058 3.9834
2.1766 10.6013 4.0403
2.252 10.6011 3.9748
-7.5219 15.5599 2.4202
-7.4716 15.5426 2.584
-6.5819 15.4782 -4.9382
-6.5318 15.6011 -4.9949
-6.5026 15.6351 -4.8703
-2.4338 16.39 -0.7282
-2.5243 16.3867 -0.6849
-2.4346 16.25 -0.5518
4.5221 6.5965 -0.0116
1.7508 11.4012 3.731
1.8511 11.4004 3.7069
1.7501 11.539 3.6772
-5.5429 4.33 -0.8078
-5.4551 4.3014 -0.861
-5.5524 4.158 -0.9183
4.8251 5.398 3.0957
4.8403 5.5384 3.118
4.7565 5.538 3.1711
-1.3325 12.9244 0.9097
-1.3866 12.9156 1.0348
-1.2604 12.951 1.0805
-6.7451 15.5183 -0.0721
-6.8218 15.577 -0.1012
-6.7883 15.5252 0.0582
-2.7871 10.4417 -2.2965
-2.8879 10.4408 -2.2731
-2.7886 10.5837 -2.2247
2.6287 9.4238 4.5194
2.5225 9.5572 4.5422
-0.8288 3.89 3.1037
4.519 8.7571 1.9166
4.509 8.7566 2.0167
4.529 8.6179 2.0163
-4.5483 7.0496 4.1515
-4.5491 7.1925 4.192
-6.4547 14.8975 -2.8049
-6.3898 15.0075 -2.8816
-6.342 15.027 -2.7756
-6.2422 11.3827 3.7693
-6.3046 11.3863 3.8555
-8.9275 9.6997 1.8404
-6.7897 11.0866 -1.1638
-6.8904 11.0844 -1.1148
-6.7916 11.2303 -1.1032
-6.5693 12.5639 4.8959
-6.5059 12.5632 4.8098
-6.6018 12.7026 4.8508
-3.1861 10.9962 -1.8383
-3.2704 11.1423 -1.7972
-6.1005 12.9668 -0.7703
-6.1015 13.1125 -0.7681
-6.0016 12.9661 -0.7422
2.9056 4.8089 -1.0734
2.9304 4.812 -0.9741
3.8478 10.5492 -0.0829
3.8759 10.4954 -0.1041
3.8029 10.5425 -0.1797
-5.1596 5.7505 -0.8886
-5.0605 5.7571 -0.9658
4.0932 9.712 -0.4794
4.0491 9.8527 -0.4827
4.1059 9.8543 -0.3796
-7.5499 11.5715 5.1524
-7.5495 11.7024 5.221
-7.6431 11.585 5.1182
-2.2493 4.3554 5.3565
-2.2493 4.4895 5.3053
-2.3483 4.4882 5.3029
4.3557 6.9596 2.5984
4.3554 7.0935 2.5915
4.2969 6.9628 2.6865
4.5108 6.3695 -0.1835
4.3967 6.3613 -0.1725
-0.1496 9.1154 5.6126
-0.1501 9.2525 5.5852
-0.2494 9.2551 5.5921
-4.5764 8.1162 -2.0015
-4.6767 8.1183 -2.0251
-4.5773 8.2633 -2.0797
5.3751 5.1989 0.0247
5.4364 5.3439 0.0229
5.4406 5.2021 0.1204
-8.026 7.3407 1.9547
-6.0061 15.5861 1.6459
-6.0535 15.5832 1.7737
-5.9107 15.5657 1.6802
-4.549 3.5203 -2.2419
-4.58 3.5343 -2.1332
-4.5049 3.672 -2.2218
2.5772 9.1578 4.6195
2.6583 9.1578 4.561
-8.5037 13.4888 0.0299
-8.3982 13.4868 -0.0717
-0.9084 3.926 3.5951
4.5338 8.6184 1.9171
3.3977 7.9617 -1.7817
3.475 8.1125 -1.7689
-1.2503 6.7348 5.4053
-8.9196 9.9693 1.8389
-8.9317 9.9696 1.7394
-3.2451 3.5331 -3.0915
-3.3442 3.3566 -2.9736
-3.3458 3.5374 -3.102
-7.3498 12.4615 5.3279
-7.4497 12.4608 5.3236
1.5144 12.8336 2.2385
1.5935 12.7804 2.2682
-6.5344 12.7011 4.773
-6.579 12.8396 4.7086
-6.644 12.8427 4.7885
-0.0115 12.0081 -1.3309
0.0981 12.0181 -1.3419
-0.0056 11.92 -1.4369
-6.1012 13.2585 -0.7471
-6.0026 13.2579 -0.7195
-6.0013 13.1125 -0.7336
4.1165 8.8641 -0.9779
-4.5149 3.3555 0.4867
-4.6189 3.3508 0.4695
-5.1528 13.6697 2.5843
-5.0909 13.5812 2.6088
-5.0407 13.5839 2.4797
-1.1493 7.4516 5.667
-1.2499 7.4502 5.6575
-2.0522 4.4856 5.2862
-1.9536 4.6121 5.1868
-2.051 4.6185 5.217
-2.4542 4.2892 5.3713
-2.3487 4.3537 5.3602
-2.4501 4.3543 5.3437
4.3037 7.0986 2.6959
2.6063 11.4349 -0.9241
2.5233 11.4772 -0.9691
2.5217 11.5733 -0.8724
1.45 10.985 4.0116
-4.174 7.5409 -1.8561
-4.2737 7.5397 -1.8587
-4.1745 7.6835 -1.8872
4.7712 5.115 3.0146
4.8017 5.2569 3.0603
4.6934 5.1167 3.0779
-6.4915 3.9234 3.9027
-6.5773 3.7814 3.8507
-6.5275 3.7865 3.9403
-1.4348 12.9147 1.1615
-1.4822 12.9108 1.2888
-1.3627 12.9395 1.3324
-0.9423 12.9915 1.9193
-1.0569 12.9741 1.8779
-1.0075 12.9607 2.0418
-4.0104 3.7954 4.276
-3.9347 3.9285 4.2122
-4.1506 3.9625 4.3059
2.6021 9.5556 4.4813
-0.729 3.8865 3.1273
-0.7659 3.8822 2.9432
4.5066 8.8973 1.9164
4.4955 8.8965 2.0166
-4.5497 7.3334 4.2072
-4.6494 7.3316 4.1807
-8.0263 14.7413 3.9708
-7.9406 14.7442 4.0264
-7.9505 14.8405 3.8911
-6.1812 11.5344 3.8603
-6.2413 11.535 3.9493
2.297 12.2414 -0.1911
2.2086 12.2759 -0.2306
2.1959 12.3501 -0.1091
2.3682 8.2405 -2.5401
2.4232 8.1841 -2.5127
2.322 8.1876 -2.562
-1.0269 12.6825 -0.4418
-1.0092 12.6182 -0.5738
-1.1234 12.6014 -0.5543
-6.1763 7.959 -1.8997
-6.1762 8.1033 -1.9232
-6.0766 7.9604 -1.9134
-7.8466 7.0327 0.6667
-7.791 7.0378 0.5516
-3.8061 15.7756 -1.1216
-5.162 6.0437 -0.9912
-5.1639 6.1888 -1.031
-5.0636 6.0489 -1.0567
-6.2041 13.8434 -0.686
-6.2323 13.9333 -0.6798
-6.1757 13.9364 -0.6568
-2.2489 4.6205 5.2304
-2.3488 4.6203 5.2202
-3.2608 17.1239 -0.3392
-3.2335 17.2733 -0.2972
-3.322 17.1246 -0.2513
3.8495 4.6955 3.149
4.0503 4.6993 3.1552
-0.1494 7.8788 5.815
-7.9284 7.0465 1.7061
-7.8551 6.9976 1.7623
-7.9566 7.1175 1.8142
-4.7568 4.4691 -1.0407
-4.757 4.6111 -1.0017
-4.6556 4.6128 -1.0246
4.7415 5.3981 3.1499
4.7238 5.2584 3.1236
-8.0006 10.8388 3.136
-8.0669 10.7746 2.993
-8.0064 10.7437 3.0875
-1.213 12.9539 0.9535
3.7598 10.834 2.4187
3.7025 10.907 2.483
3.7335 10.8319 2.5187
-3.451 10.9779 3.7225
-3.5503 10.9745 3.7066
-3.5505 10.8366 3.7827
2.6315 8.4927 4.6936
2.6296 8.6268 4.692
2.5432 8.6264 4.7438
-8.3463 13.6224 -0.0677
-8.4015 13.76 0.0356
-8.3067 13.6771 -0.0769
4.1485 5.6968 3.1653
4.0497 5.6939 3.1403
4.0494 5.5558 3.1846
-3.4592 4.8557 3.9669
-3.5498 4.915 3.8916
-3.5528 4.785 3.964
0.0027 9.9158 -2.5003
0.0994 9.8918 -2.4791
0.0235 9.8554 -2.6375
-5.55 4.6631 4.2195
-5.3284 4.5435 4.3439
-5.3498 4.6577 4.2041
-7.3497 12.6028 5.3022
-7.4494 12.6019 5.2992
1.462 12.8223 2.362
1.5448 12.7759 2.3928
-6.6265 12.9803 4.6368
-6.6886 12.9814 4.7241
-1.1452 12.6605 -0.4151
-6.1799 8.6736 -1.9281
-6.0795 8.5334 -1.9777
4.1787 8.8692 -0.8777
-4.5735 3.3717 0.6407
-4.6732 3.3754 0.6173
-6.3421 16.7809 -4.2595
-6.4155 16.8532 -4.1368
-6.3593 16.7459 -4.1189
-1.1492 7.5942 5.7139
-1.251 7.5911 5.6979
-4.6608 16.6842 0.2891
-4.6022 16.6062 0.4012
-4.4905 16.7415 0.3016
2.0352 6.7261 4.8714
2.1782 10.6251 -1.6537
2.172 10.5135 -1.7343
2.0792 10.6393 -1.6684
-0.1494 8.0142 5.7689
-7.8856 7.0624 1.8765
-4.6555 4.472 -1.0781
3.786 9.1495 3.5553
3.845 9.1472 3.4631
3.7728 9.2842 3.5309
-7.9885 7.0637 1.4553
-8.0829 7.2093 1.5544
-8.0939 7.2101 1.4544
-6.1006 15.5949 1.9017
-6.0018 15.5783 1.9371
-3.4535 10.8408 3.8046
-8.4535 13.6246 0.0325
0.0501 4.573 4.7254
0.0507 4.7421 4.9671
-0.0486 4.7441 4.9521
-0.6037 3.8709 2.8066
-0.6619 3.8869 2.9605
-0.7076 3.8663 2.7893
4.4861 9.0373 1.917
4.4785 9.036 2.0157
-4.5493 7.4751 4.2165
-4.6497 7.4738 4.2075
-3.8606 3.9292 -2.848
-3.9609 3.9228 -2.7851
-3.8619 4.066 -2.7733
1.2143 12.4109 -0.7763
1.2283 12.3395 -0.8986
1.1296 12.3527 -0.9133
-5.8653 6.4539 -0.7613
-5.7661 6.4539 -0.7887
5.3579 6.5804 0.012
5.4495 6.5556 0.0404
5.3473 6.4563 -0.0632
-6.5613 6.267 -0.2838
-6.5629 6.4236 -0.4441
-6.4586 6.2812 -0.3592
4.0426 9.1409 -0.9788
3.9982 9.1099 -1.0396
-7.4647 15.1291 -2.888
-7.4501 15.1286 -2.9878
-7.4685 14.995 -2.9403
-5.1624 5.8953 -0.9293
-5.0618 5.9026 -1.0043
-2.2485 4.7463 5.1093
-2.3491 4.7496 5.1015
1.98 7.6832 5.1532
1.9035 7.6835 5.2192
1.8947 7.5492 5.204
-4.7812 13.4031 0.6405
-4.7131 13.2491 0.5413
-4.8018 13.3707 0.4902
3.7477 10.6859 -0.1833
3.7854 10.688 -0.0832
-4.8557 4.4648 -1.0119
-8.1427 7.5248 1.9537
-8.1106 7.4824 1.9538
-8.0796 7.4771 2.055
-7.4394 15.7452 -0.4708
-7.3338 15.8682 -0.5765
-7.4676 15.8036 -0.6286
-3.4512 11.1154 3.61
-3.55 11.1108 3.604
2.539 8.4929 4.7404
3.0375 10.6409 -1.2711
3.1269 10.6096 -1.2371
3.0358 10.5377 -1.3606
0.5469 9.6433 5.2072
0.6469 9.6412 5.1605
0.545 9.7676 5.072
-2.5602 9.1818 4.7757
-2.4963 9.3168 4.7071
-2.6159 9.1804 4.6893
-3.3664 3.3971 2.3047
-3.4658 3.4006 2.2809
-3.4031 3.3929 2.1206
-6.3202 16.6731 -6.0592
-6.1867 16.5619 -6.0077
-6.3202 16.5278 -6.0198
-7.3488 12.7439 5.259
-7.4494 12.7436 5.2791
1.4057 12.802 2.4845
1.4922 12.7634 2.5163
-6.6627 13.1204 4.584
-6.7266 13.1206 4.6697
-6.4076 15.1735 -3.3508
-6.3511 15.292 -3.4096
-6.3057 15.313 -3.3029
-1.9009 10.0114 -2.409
-1.93 9.851 -2.44
-2.0073 10.0101 -2.4087
-6.5643 6.5762 -0.5819
-6.4618 6.5925 -0.6821
-6.4652 6.4255 -0.5033
-7.6047 6.8913 0.3545
-7.6295 6.8931 0.4546
-7.7078 7.0302 0.3513
-4.5832 3.478 0.7232
-4.6918 3.4652 0.7127
3.429 11.2223 -0.202
3.4227 11.3045 -0.0582
3.485 11.2087 -0.0408
-1.1519 7.7358 5.7449
-1.2508 7.732 5.7207
-3.2788 8.2138 -2.8533
-3.2545 8.2117 -2.955
-3.2642 8.0708 -2.9526
-5.0653 6.194 -1.096
5.5035 6.4867 2.6787
-2.6498 12.5984 1.0106
-2.7041 12.5883 1.1382
-2.59 12.6064 1.1796
2.897 10.0814 4.0299
2.8068 10.0848 4.0749
2.8445 9.9518 4.129
-0.1429 12.6525 -0.6226
-0.0409 12.6448 -0.6156
-0.1367 12.5668 -0.7295
-0.2498 9.3904 5.5399
-8.2079 7.6518 2.1829
-8.2779 7.7131 2.1157
-4.8569 4.6069 -0.9637
-4.857 4.7508 -0.9378
-4.7561 4.7528 -0.9604
-6.9872 11.424 5.0428
-6.8742 11.428 4.9737
-6.89 11.5705 5.1284
0.9615 12.2501 3.4807
0.8496 12.2392 3.5092
2.3464 8.8908 4.8143
2.2551 8.8883 4.8558
2.2644 8.7561 4.8708
-8.3217 13.898 0.0315
-8.3078 13.8234 -0.0101
5.2528 6.6474 2.7169
0.1942 3.5349 2.0058
0.2808 3.5064 2.0485
0.1709 3.6166 2.1082
4.4676 9.1763 1.916
4.4554 9.1755 2.016
-4.5497 7.6155 4.2184
-4.6496 7.6159 4.2352
-5.0673 16.2525 0.5643
-5.199 16.1388 0.6282
-5.0881 16.1419 0.6662
1.116 12.4256 -0.7914
-2.8899 3.7765 2.422
-2.957 3.776 2.5889
-3.0867 3.5991 2.5403
-2.5589 3.6555 -2.9258
-2.4607 3.7979 -2.9037
1.4787 10.5075 -1.93
1.5837 10.5055 -1.9258
1.4794 10.4084 -2.0224
-2.2311 12.2995 -0.6186
-2.2186 12.2325 -0.745
-2.3326 12.2164 -0.7261
-7.0851 9.3701 -1.593
-7.0831 9.5139 -1.5871
-6.9833 9.3723 -1.627
-8.4786 8.0451 0.451
-8.5242 8.0497 0.5516
-8.4946 8.1799 0.4489
3.4903 11.1324 -0.1804
-3.2874 8.073 -2.8517
-2.1831 8.8212 -3.704
-2.2754 8.8902 -3.6575
-2.156 8.9133 -3.6783
4.0969 9.2635 2.9496
4.041 9.2669 3.0457
-6.6686 14.1706 -0.8936
-6.5739 14.2564 -1.015
-6.5092 14.2629 -0.9335
-2.2491 4.868 4.9188
-2.3488 4.8702 4.9309
-4.9492 15.4959 1.0341
-5.0499 15.6412 1.0192
-5.0495 15.4968 1.0718
-0.7447 9.6102 -3.1803
-0.7347 9.5288 -3.2973
-0.8411 9.5275 -3.2966
-8.4919 11.7035 4.8299
-4.9648 6.3446 -1.1831
-4.8681 6.3487 -1.2386
-4.8655 6.2059 -1.2226
3.8332 9.2814 3.4447
3.8091 9.4129 3.4131
3.7495 9.4148 3.505
0.1522 3.707 2.2048
0.1377 3.8052 2.2942
0.07 3.7434 2.1551
-0.6796 10.0851 4.565
-0.8458 10.0229 4.7603
-0.6406 10.047 4.7275
2.6147 8.7595 4.6714
2.5355 8.7598 4.7335
-8.2649 13.7607 -0.0713
-8.1659 13.7613 -0.18
-8.2407 13.6209 -0.1703
0.2489 11.8285 3.8745
0.3493 11.8288 3.8511
0.2498 11.9676 3.7523
-4.8943 6.1437 3.5176
-4.8312 6.1474 3.5964
-4.909 6.2801 3.5285
1.2421 12.2685 -1.021
1.1437 12.283 -1.0362
-7.3498 12.8836 5.2284
-7.249 12.743 5.243
-7.2518 12.8806 5.1975
-2.5599 3.7974 -2.9094
-2.5599 3.9411 -2.9146
-2.4606 3.9411 -2.9087
1.3472 12.7798 2.6071
1.4305 12.7349 2.6384
-6.6899 13.2617 4.5424
-6.7513 13.2633 4.6303
-1.389 8.9749 -3.7366
-1.4958 8.9738 -3.7366
-1.4824 9.1051 -3.6709
-1.6949 9.0992 -3.6661
-1.7083 8.9686 -3.7322
-1.8056 9.0922 -3.6602
-6.985 9.8024 -1.5524
-7.0846 9.8002 -1.5255
-6.985 9.9442 -1.5014
-5.2651 5.0439 2.8653
-5.2542 5.0441 2.9655
-5.2177 5.18 2.8645
-4.5974 3.576 0.8121
-4.7104 3.5549 0.808
3.4203 11.3899 0.0841
3.4803 11.3058 0.11
-1.1501 7.8747 5.7665
-1.2498 7.8722 5.7293
-3.2679 8.3545 -2.8552
-3.227 8.3503 -2.9549
-2.051 12.4449 -0.3697
-2.0334 12.3782 -0.5009
-2.1384 12.3724 -0.497
4.1649 8.0611 3.0401
4.117 8.065 3.1449
4.1129 7.9297 3.1369
-2.5502 12.5351 0.3179
-2.5877 12.5557 0.4499
-2.4186 12.5789 0.3665
1.7009 6.7259 5.0914
1.7868 6.7253 5.0402
1.7207 6.8625 5.1216
-0.6467 12.8955 -0.0718
-0.5365 12.9031 -0.0823
-0.6172 12.8513 -0.2286
-5.6114 13.9571 -0.3707
-5.5184 14.0262 -0.246
-4.9644 6.2014 -1.1706
3.5711 10.2065 3.2489
3.6348 10.2053 3.1639
3.5368 10.3387 3.1987
-8.1764 7.5878 2.0688
-7.1938 16.298 -1.257
-7.2857 16.2156 -1.1433
-7.1744 16.2192 -1.1037
-6.1345 4.3434 4.2412
-6.1899 4.3399 4.1548
-6.2362 4.2076 4.2052
3.1205 10.4936 -1.3141
-0.1498 8.5665 5.7326
-0.0497 8.5663 5.7334
-0.1494 8.703 5.6903
0.3213 3.4575 1.92
0.2264 3.4692 1.8901
4.4436 9.3157 1.9161
4.4326 9.3152 2.0162
-4.5497 7.7554 4.221
-4.6509 7.7614 4.2786
-4.8443 6.2847 3.6058
-7.449 12.8852 5.2663
-1.78 12.1647 -0.8765
-1.7781 12.071 -0.9767
-1.8804 12.0762 -0.9824
1.7867 10.3889 -2.0013
1.8853 10.3753 -1.9862
1.7916 10.2978 -2.104
-5.7835 8.9788 -2.1372
-5.7836 9.1219 -2.1235
-5.6837 8.9813 -2.1762
4.8704 4.302 1.2222
4.8598 4.2993 1.3223
4.7992 4.2657 1.35
-2.1643 12.4246 -0.3492
-0.1957 3.6957 0.8736
-0.1404 3.6102 0.9625
-0.2412 3.7367 1.009
4.071 6.8459 3.0687
4.0217 6.8512 3.1744
4.0174 6.7159 3.1668
-3.2166 12.5608 1.8357
-3.2718 12.5444 1.9628
-3.1889 12.4978 1.9937
-2.2497 4.9885 4.6496
-2.3497 4.9898 4.6865
0.6201 8.324 5.6461
0.5518 8.2824 5.6632
0.6513 8.2801 5.6247
-1.3323 9.7887 -2.7733
-1.2185 9.8055 -2.7908
-1.3072 9.7391 -2.921
-7.6 13.9851 -0.6099
-7.6008 14.1318 -0.5968
-7.499 13.9866 -0.6476
3.6002 10.3374 3.1135
3.5661 10.4701 3.0636
3.5012 10.4701 3.1475
-3.0136 3.4924 4.7643
-3.0772 3.4914 4.922
-3.1168 3.4886 4.7453
-7.6963 15.0462 3.7133
-7.8071 15.0403 3.6755
-7.8019 14.9419 3.8326
-3.5685 4.3557 4.5098
-3.626 4.3492 4.427
-3.6676 4.2146 4.4718
2.0842 10.4696 4.2599
1.9945 10.4671 4.3047
2.0435 10.3384 4.3762
-8.2336 14.0394 0.0223
-8.1752 14.0386 -0.079
-8.1976 13.8997 -0.077
-0.15 8.4288 5.7503
-0.2504 8.4299 5.754
0.2342 3.6706 2.2543
-2.9047 7.7774 4.3141
-2.9331 7.9187 4.3373
-2.9594 7.8971 4.2796
0.7503 5.3258 5.2214
0.6503 5.3315 5.2813
0.652 5.1864 5.2502
-2.5608 4.0854 -2.9241
-2.4607 4.0848 -2.9135
1.2892 12.7573 2.7292
1.3717 12.7103 2.7599
-6.7117 13.4015 4.516
-6.7695 13.4039 4.6063
0.4536 12.8718 -0.2656
0.5597 12.8727 -0.2676
0.4707 12.8083 -0.3971
5.0559 7.1151 0.464
5.1617 7.1139 0.4641
5.0657 7.0338 0.3466
-5.784 9.2653 -2.1108
-5.6843 9.2695 -2.164
-8.7973 10.0935 0.7399
-8.7603 10.2265 0.7398
-8.7597 10.0907 0.6406
-5.2453 3.3571 2.3045
-5.3403 3.3693 2.2744
-5.2887 3.3429 2.1308
3.4085 11.4614 0.2252
3.4719 11.3797 0.2499
-1.1507 8.0144 5.781
-1.2492 8.0127 5.7503
-3.205 8.4919 -2.8572
-3.155 8.4874 -2.9569
-1.7634 12.5847 -0.1195
-1.7377 12.5333 -0.2678
-1.8516 12.5172 -0.2489
4.0512 6.5715 3.0335
4.0125 6.5799 3.1583
4.005 6.4447 3.1484
-6.3288 15.1202 -2.9574
-6.3716 15.0986 -3.0641
2.3914 8.3585 4.8744
2.3129 8.3582 4.9361
-0.851 9.6079 -3.179
-7.9448 7.3217 2.1695
-7.9738 7.3871 2.2832
-8.0403 7.4566 2.2098
6.0424 6.7863 1.3152
6.0445 6.7869 1.4153
6.07 6.6503 1.416
-1.6108 3.8364 0.6413
-1.683 3.828 0.8155
-1.7154 3.8318 0.6245
-6.6567 14.7777 -2.8765
-6.5616 14.8667 -2.9991
-6.5082 14.8822 -2.9018
-1.8805 6.2527 5.0325
-1.8138 6.2569 5.1081
-1.9061 6.3953 5.054
2.023 10.5998 4.1711
0.453 10.2977 4.4025
0.4505 10.4341 4.2886
4.4182 9.4548 1.9159
4.4056 9.4539 2.0158
-4.5487 7.8962 4.2389
-4.6535 7.905 4.3145
-2.3645 9.0606 5.1472
-2.3148 9.1948 5.0937
-2.4145 9.0549 5.0568
-2.2958 16.6842 -1.0557
-2.3923 16.684 -1.0197
-2.3212 16.5344 -0.9185
0.7495 5.4691 5.2535
-0.9586 12.8017 -0.171
-0.9336 12.7529 -0.3198
-1.0475 12.7368 -0.3006
-2.2157 15.7426 -0.6471
-2.0337 15.8355 -0.6746
-2.091 15.8178 -0.5796
4.5102 9.1769 0.3186
4.4763 9.3158 0.3182
4.4997 9.3175 0.4182
-5.2928 3.3911 2.4415
-5.3959 3.3876 2.4231
-1.8765 12.5661 -0.0996
-0.1812 3.659 1.0913
-0.291 3.7693 1.1513
-5.5786 8.5476 -2.1411
-5.4788 8.548 -2.1421
-5.4782 8.4072 -2.1543
-2.4738 12.4904 0.0549
-2.3488 12.5296 0.1006
-2.2407 5.1013 4.4099
-2.3484 5.1 4.3559
1.8101 6.1786 4.8904
1.7379 6.3158 4.9653
-1.2301 11.0982 -1.9549
-1.2365 10.9877 -2.0382
-1.3403 11.0892 -1.9448
-8.0089 7.3923 2.0953
-6.8776 18.0487 -5.8304
-6.8804 18.096 -5.798
-6.8231 18.0685 -5.8428
-9.0523 13.2421 3.0225
-9.0383 13.2413 3.1223
-8.9872 13.3794 3.0219
-2.4235 4.0168 5.4185
-2.5548 4.1446 5.3982
-2.0284 16.977 -1.3726
-1.9823 16.8315 -1.3059
-8.1896 14.1783 0.0187
-8.1409 14.1772 -0.0809
0.1483 10.5804 4.2926
0.1482 10.7215 4.2783
0.0482 10.723 4.305
-1.9757 9.7134 4.6022
-1.9295 9.7132 4.6946
-1.8658 9.8508 4.4652
5.7376 6.2179 2.4873
5.6717 6.2197 2.566
5.6653 6.0837 2.5565
0.7508 5.1831 5.1982
-2.5617 4.2269 -2.9104
-2.4613 4.2266 -2.8998
1.2166 12.7075 2.8478
1.303 12.6665 2.8775
-6.7227 13.5447 4.497
-6.7829 13.5464 4.5861
-1.8823 12.1694 -0.8817
-2.879 10.5845 -2.2114
-2.8643 10.7004 -2.1319
3.1937 5.6889 -1.4766
3.3144 5.8444 -1.4721
3.3136 5.7044 -1.371
-1.1509 8.1532 5.7836
-1.2509 8.1514 5.7592
-3.1395 8.6269 -2.8556
-3.09 8.6233 -2.9563
-2.9884 4.486 -2.8227
-3.0962 4.4825 -2.8199
-3.0987 4.5864 -2.7187
-7.665 8.1087 -1.0602
-7.5594 8.0996 -1.1615
-7.559 7.9639 -1.0614
-6.2913 11.1049 -1.459
-6.2924 11.2473 -1.3849
-5.4929 15.4823 1.3977
-5.5712 15.5088 1.369
-5.5517 15.4658 1.5223
2.2885 8.4908 4.9031
-1.1578 9.6262 -3.2007
-1.156 9.531 -3.3022
-1.2624 9.5293 -3.3011
-8.0024 7.4587 2.3915
-8.0701 7.5273 2.3185
-9.2182 11.7455 4.1201
-9.1814 11.6108 4.0357
-9.1258 11.6106 4.1708
-6.9613 15.0354 -4.301
-6.8808 15.0274 -4.2428
-6.991 14.965 -4.0967
-3.2669 3.8227 5.075
-3.1709 3.821 5.121
-3.1792 3.9627 5.1235
2.1321 10.3387 4.3289
0.0497 10.3028 4.405
0.1491 10.3013 4.3912
0.0481 10.4429 4.3651
2.0252 8.056 -2.7067
2.1267 8.0528 -2.6587
4.3816 9.5936 1.9162
4.3695 9.5927 2.0159
-4.5499 8.0415 4.2675
-4.6523 8.0479 4.3394
-3.0576 7.8869 4.1582
-2.954 7.7753 4.2206
1.4044 4.0607 4.4581
1.5086 4.065 4.4386
1.4095 4.1997 4.4664
0.6504 5.472 5.2946
-2.8677 12.3948 -0.1039
-2.9338 12.3554 -0.265
-2.9531 12.3946 -0.1254
-6.5752 3.3742 -0.6723
-6.675 3.3778 -0.6955
-6.565 3.3961 -0.7336
-9.2123 12.6953 3.7249
-9.1574 12.8321 3.7242
-9.2043 12.6958 3.6253
-5.3482 3.4093 2.5906
-5.4474 3.4136 2.5658
-0.0868 10.4495 -2.2376
0.0137 10.4495 -2.2152
0.014 10.3071 -2.2509
2.9636 10.7455 3.6004
2.9335 10.8769 3.5578
2.8594 10.8783 3.6258
-6.4668 15.5196 -4.254
-6.4202 15.5431 -4.1386
-6.5202 15.3998 -4.1972
3.5362 10.6017 3.0216
3.4684 10.6039 3.0986
-1.5889 12.3338 -0.6548
-1.5846 12.2449 -0.7608
-1.6841 12.2494 -0.7661
-5.6718 7.2388 -1.6755
-5.7714 7.2392 -1.6743
-5.673 7.3831 -1.7574
-2.0879 3.8336 0.1839
-2.1918 3.8291 0.1666
-2.1202 3.8373 -0.0079
-4.2499 16.674 0.3816
-4.3803 16.7379 0.3343
-4.3496 16.6715 0.3916
-1.8356 6.3974 5.1255
-1.8787 6.5423 5.1645
-1.9496 6.54 5.0932
-8.1792 14.3171 0.0172
-8.1074 14.3155 -0.0828
-2.246 18.3226 -1.1512
0.8537 10.3079 4.5574
0.7557 10.303 4.5295
0.7557 10.1711 4.6537
-7.5975 15.6283 -0.564
-7.5688 15.767 -0.7391
3.1592 7.3801 -1.9721
0.7505 5.61 5.2831
0.6513 5.6103 5.2993
-2.562 4.3655 -2.8714
-2.4619 4.367 -2.8642
1.1387 12.6452 2.9632
1.2255 12.6063 2.9944
-6.7316 13.687 4.4854
-6.7947 13.6882 4.5721
-3.2279 4.2163 -2.9699
-3.2605 4.0897 -3.0074
-6.4708 3.3787 -0.6552
-6.4121 3.3626 -0.8108
-8.6078 11.0355 0.7352
-8.6545 11.0395 0.8354
-8.7424 11.1776 0.7339
-1.1504 8.2913 5.7697
-1.2496 8.2899 5.7534
-3.0756 8.765 -2.8559
-3.0388 8.7624 -2.9565
-1.2585 9.3377 -3.5061
-1.2599 9.2282 -3.5946
-1.3606 9.3388 -3.5076
0.4454 13.0749 0.2751
0.5494 13.0728 0.3134
0.4951 13.0435 0.1526
2.8907 10.744 3.6704
-1.748 12.7364 2.0674
-1.8734 12.6979 2.0224
-1.834 12.6605 2.1835
-7.766 10.3464 3.4245
-7.8378 10.3446 3.3549
1.8222 6.3161 4.9123
1.7545 6.4533 4.9902
-1.2424 10.8763 -2.1205
-1.3598 10.8507 -2.0922
-1.3497 10.9686 -2.0165
-8.0206 7.5481 2.4867
-8.0918 7.6144 2.4152
-5.187 14.4272 -0.024
-5.1084 14.5457 -0.0907
-5.0913 14.4221 0.0403
0.614 10.3026 -2.1368
-8.311 7.7721 2.1513
-9.3015 11.6045 1.6314
-9.3021 11.6049 1.7313
-9.3407 11.7385 1.6301
-2.4788 9.0539 4.98
-2.5416 9.0513 4.9011
-2.5899 8.9166 4.9535
-0.3488 11.693 3.9882
-0.449 11.6939 3.9774
-0.4499 11.5591 4.0472
2.0267 8.1978 -2.7108
2.1219 8.1943 -2.6632
4.3341 9.7322 1.9164
4.3221 9.7315 2.0165
-4.5496 8.1829 4.3101
-4.6499 8.1881 4.3601
-6.9678 8.6056 4.2335
-7.0298 8.4676 4.1595
5.728 6.0815 2.4711
-2.3807 8.9963 -3.5665
-2.4943 9.0738 -3.4443
3.3905 5.9917 -1.4725
3.46 5.9954 -1.3776
3.4023 5.8532 -1.3714
-1.2729 9.0996 -3.6642
-1.3719 9.1107 -3.6744
-1.3664 9.2264 -3.5931
-0.086 10.5926 -2.1925
0.0134 10.5909 -2.165
-1.2773 17.1309 -1.8659
-1.194 17.1322 -1.9212
-1.3224 17.2771 -1.9311
-6.7019 15.5095 -0.2024
-6.7727 15.5796 -0.2291
-3.3187 15.511 0.0985
-3.2316 15.5148 0.0488
-3.2709 15.6604 0.1707
-6.5038 15.3613 0.0197
-6.4561 15.3661 0.1105
-6.4333 15.3058 -0.0308
-2.7857 9.7298 -2.3991
-2.7862 9.8717 -2.3745
-2.6856 9.8727 -2.3978
0.6131 10.5885 -2.0891
0.7133 10.5885 -2.0777
-8.107 7.5202 2.1415
-8.1393 7.5893 2.2508
-7.6144 15.4623 2.8318
-3.9798 8.8521 -2.272
-3.8805 8.8548 -2.3113
-3.8796 8.7043 -2.2217
-8.1697 14.4555 0.0153
-8.0949 14.4539 -0.0826
-5.8046 4.9485 0.4682
-5.7908 4.9466 0.5692
-5.7509 5.0794 0.4663
-6.977 8.7414 4.2382
-7.0648 8.7412 4.1837
-7.0541 8.6061 4.1775
-3.1814 15.6607 0.1242
-3.0928 15.6627 0.0764
-3.1352 15.8102 0.1921
-4.5184 16.983 -0.4971
-4.4685 16.9846 -0.5967
0.452 6.6137 5.6056
-2.5622 4.5019 -2.8079
-2.4622 4.5044 -2.8117
1.059 12.5785 3.077
1.1462 12.5412 3.1086
-6.7463 13.8295 4.4644
-6.8103 13.8305 4.5503
-1.4956 9.9773 -2.3718
-1.5939 9.9902 -2.3843
-1.565 10.151 -2.3569
-6.4543 3.564 -0.7855
-1.047 10.0279 -2.4234
-1.1571 10.0192 -2.4148
-1.1083 10.2149 -2.4169
2.7058 12.2199 0.6832
2.784 12.1636 0.7117
-1.1496 8.4285 5.7531
-1.2498 8.4278 5.7419
-3.0037 8.9046 -2.8575
-2.9785 8.9026 -2.9585
-1.0739 11.7999 -1.502
-1.1885 11.7889 -1.4892
-1.1827 11.8985 -1.4054
-1.2214 16.9818 -1.7846
-1.1418 16.9868 -1.8459
-1.1754 3.8686 -1.5202
-7.045 15.4022 3.1766
-7.1276 15.3449 3.3014
-2.6619 4.909 -2.5439
-2.7607 4.8822 -2.4621
-2.6633 5.0557 -2.573
