-3.271325 18.008293 -1.094414 
-3.133603 17.904791 -1.006617 
-4.469839 14.824400 -0.497970 
-4.207905 15.282096 -0.649219 
-4.450683 15.188062 -0.675665 
-3.197360 17.002031 -1.571574 
-3.548342 17.029667 -1.676095 
3.761353 9.435812 -1.160772 
3.959998 9.332939 -1.385889 
3.661540 9.055553 -1.099832 
1.731082 9.606877 4.870309 
2.188118 9.695225 4.517551 
1.428051 3.621336 -2.375498 
1.169831 3.765980 -2.490152 
1.437862 3.975647 -1.996240 
1.339747 4.099137 4.657041 
1.152122 4.120745 4.601358 
1.191178 4.007248 4.544920 
-6.416945 4.361296 3.543810 
-6.081983 4.721586 3.645013 
-6.104966 4.854017 3.279841 
4.672894 5.815685 3.260716 
4.631295 5.760286 2.935102 
-7.780054 17.194368 -4.368668 
-7.752356 17.604479 -4.129770 
2.341954 10.217276 4.320917 
-4.944555 13.824248 1.383512 
-5.019247 13.479075 1.452210 
-4.722177 13.550881 1.404156 
-1.105617 16.932848 -2.061608 
-0.840653 16.511631 -2.121741 
-0.810062 16.702375 -2.354805 
-6.180996 13.549221 3.581731 
-6.236444 13.291318 3.656948 
-0.021861 9.832011 -2.599123 
0.061119 9.573115 -2.840998 
-0.250414 9.663510 -3.105400 
-4.588252 8.797013 -2.264174 
-6.924392 9.879086 -1.488743 
-6.629686 9.941219 -1.684245 
-6.667144 10.181517 -1.614662 
-0.559535 3.555404 -2.042036 
-0.219291 3.499959 -2.426665 
-0.110610 3.255265 -2.251798 
-5.021513 5.036755 2.893664 
-5.079485 5.006624 2.806429 
-5.403733 5.117360 2.476989 
-4.523683 4.008658 -1.914748 
-4.310307 4.013717 -1.979312 
-1.463200 17.991381 -2.523042 
-1.134394 17.658487 -2.621576 
-5.933907 3.275201 4.155378 
-6.105693 3.569060 3.891487 
-1.988408 18.548300 -1.377998 
-2.390056 18.511238 -1.308293 
-5.364942 4.164403 -0.778519 
-5.375264 4.406920 -0.870208 
-5.115425 4.580888 -0.744600 
-7.017423 16.967430 -3.263633 
2.058216 3.685981 -1.013702 
1.983023 3.628537 -0.795765 
1.921998 3.355780 -0.912514 
-7.078174 17.231337 -3.299004 
-7.014337 17.110178 -3.593853 
-7.210185 17.119673 -3.237266 
0.848073 13.073981 0.971087 
0.898504 13.082767 1.211457 
1.215746 13.259393 0.953595 
-8.849504 11.861521 4.601075 
-8.768687 11.956686 4.577806 
-8.832239 11.905059 4.379293 
-3.162155 4.824807 -2.253977 
-3.418119 4.671782 -2.523790 
-3.506472 4.577395 -2.555161 
0.025724 5.873361 5.498463 
-0.140992 5.992784 5.182094 
3.317745 6.672638 4.019911 
2.975753 7.026434 4.008754 
3.085997 6.692780 3.994124 
-5.966278 3.476542 1.916160 
-6.262321 3.324553 1.722469 
-6.087677 3.264549 2.255726 
-6.607505 17.639080 -5.100842 
-6.649845 17.700956 -5.362496 
-6.395655 17.469532 -5.102585 
5.034958 6.841990 2.842149 
-4.087799 8.858186 -2.077063 
-3.738937 8.898688 -2.193079 
1.994967 10.516536 4.078451 
2.099842 10.637708 4.117143 
-6.922048 17.933039 -5.591053 
-6.932728 18.285210 -5.598055 
-7.124453 18.026455 -5.322525 
3.828856 10.949261 1.868283 
-3.250290 15.198455 -0.260235 
-3.045424 15.472663 -0.434795 
-3.124225 15.634215 -0.234759 
0.153262 9.557427 -3.133721 
-7.464467 14.744745 4.244565 
-7.446666 14.488937 4.532223 
-6.797373 3.909239 -0.332589 
3.950124 9.878961 -0.604430 
3.779419 9.750157 -0.946825 
3.817844 9.972863 -0.486114 
-2.605023 15.519524 -0.830009 
3.999292 9.362148 3.082604 
4.114247 9.087874 2.948770 
4.226638 9.455186 2.898048 
-4.036232 12.139668 -1.032757 
-4.017618 12.406652 -0.867670 
3.017456 11.964231 1.897119 
3.041516 11.703104 1.851129 
-1.350064 9.576274 5.224437 
-1.366638 9.716567 5.538250 
-7.953403 15.360394 0.015124 
-7.889662 15.384237 -0.020777 
-7.993607 15.029735 0.298646 
-4.981788 4.412222 -1.053118 
-1.069590 13.152939 0.753901 
-3.353696 3.515872 4.787404 
-3.465716 3.750678 4.728285 
-3.582147 3.409444 4.824639 
0.849633 12.875130 2.444962 
0.798720 13.027642 2.351979 
0.758720 13.065089 2.286924 
3.085594 3.937077 2.604710 
3.063267 4.194620 2.709594 
-0.463837 13.020983 0.309967 
-0.704605 12.927142 0.239857 
-0.963954 13.074096 -0.005921 
1.250401 4.266230 -2.510294 
1.369435 3.796334 -2.457900 
3.513224 6.105716 3.803781 
3.510236 6.209286 4.045672 
3.345265 6.101956 3.891511 
-7.170661 11.410999 4.841938 
-8.991301 9.473516 0.854908 
-8.872756 9.425729 0.574441 
-8.982940 9.016674 0.823633 
0.387967 6.146370 5.742079 
0.126396 6.407821 5.726160 
0.072052 6.324006 5.752044 
-2.645197 5.564980 3.838110 
-2.438367 5.490265 3.821046 
-2.639744 5.968781 4.029952 
-3.080983 3.627969 1.983901 
-5.347095 14.764218 1.493167 
-5.003236 14.939812 1.487246 
-5.613046 4.454022 2.038070 
-5.542063 4.567639 2.233990 
-5.307233 4.562385 2.089961 
-6.375723 13.554187 3.552817 
-6.110330 13.799040 3.825346 
-0.910670 12.716523 -0.331238 
2.384326 8.243929 -2.520507 
2.424727 8.616196 -2.502688 
2.095078 8.565251 -2.484820 
-0.394805 9.981065 -2.921058 
-0.389309 9.510369 -2.695086 
-7.593790 16.953558 -3.316597 
-7.643650 17.267876 -3.199262 
3.246461 5.884901 4.231375 
2.860828 6.016021 4.127065 
-1.025875 17.930202 -3.174462 
-1.261163 17.798876 -3.098684 
-1.386121 17.856054 -2.717738 
-5.908659 3.423283 4.385764 
-6.132929 3.245128 4.272879 
-7.341537 15.487768 -2.747001 
-7.347373 15.129429 -2.803493 
-7.993421 15.484530 1.807831 
-7.770534 15.401940 2.015083 
-7.740009 15.458619 2.131554 
1.513206 3.672493 -0.523094 
0.951793 12.962580 0.736233 
1.121460 12.954510 0.869237 
1.150472 13.247501 0.960470 
-9.033514 11.788922 4.746848 
-9.221185 12.113335 4.642666 
3.885564 9.344211 -1.501854 
5.197422 6.259140 2.941426 
5.142103 6.156056 2.996117 
4.963335 6.110097 3.131486 
-5.633461 7.284253 4.190229 
-5.184905 7.334396 4.256060 
-5.661123 7.158506 3.968719 
-4.584035 13.027428 0.303470 
-4.617016 13.174864 0.477942 
-4.166718 12.709330 0.316127 
1.184698 9.533044 5.119788 
1.191394 10.061015 4.972178 
-6.570530 16.239067 -5.981816 
-6.438963 16.442953 -5.856769 
-6.429428 16.743841 -6.226967 
1.689752 10.365987 4.716879 
1.779162 10.308414 4.813935 
1.866631 10.132229 4.550814 
-8.962548 13.378762 3.719428 
-9.216856 13.509394 3.772307 
3.874621 10.711842 1.583100 
3.851959 10.603187 1.593565 
3.816886 10.529006 1.741983 
0.484620 12.649892 3.223985 
0.204300 12.287416 3.279277 
-0.274616 9.736517 -3.069087 
-0.478087 9.749728 -3.224922 
-7.062701 14.556110 4.156856 
-7.365338 14.769812 4.485868 
-7.017860 14.786505 4.223312 
-9.084804 14.561776 2.524104 
-9.283353 14.772585 2.440640 
-9.128438 12.259021 1.032596 
-9.308206 12.054891 1.050338 
-9.090470 12.293342 0.610003 
3.761957 6.868275 3.322870 
3.844720 6.739838 3.141249 
-3.990452 12.332387 -1.218391 
-3.843446 12.079899 -0.914130 
3.249372 11.741889 1.866225 
3.052935 11.951335 1.954751 
-1.332411 9.966132 5.058586 
-0.895121 9.707245 5.075757 
-0.884475 9.512889 5.138297 
-5.174087 4.179969 -0.912312 
-5.141534 4.352076 -0.965687 
-5.259314 3.977446 -1.080699 
-2.960915 3.797644 2.807338 
0.944244 13.056348 1.419187 
0.997664 12.961070 1.545325 
0.838340 13.118054 1.294211 
-0.444559 3.495595 -1.847607 
-0.705823 3.402124 -1.525313 
-0.817616 3.355699 -1.440874 
1.229131 4.223963 -2.246855 
1.274269 3.986979 -2.301929 
1.158032 3.312415 3.503867 
1.308183 3.482851 3.212161 
1.496571 3.283645 3.220659 
-7.941792 15.577159 2.598480 
-7.742617 15.617349 2.328285 
-7.991356 15.512240 2.786129 
-7.874914 14.583167 4.214503 
-7.799676 14.647799 4.315853 
-7.815500 14.515881 4.461765 
-5.038205 11.647600 3.128495 
-4.713984 11.639783 3.253260 
-4.753567 11.414816 3.475261 
-5.333755 4.568038 3.054356 
-5.380646 4.814795 2.868865 
-5.620417 4.629728 2.644664 
0.548118 7.160622 5.796754 
0.593698 6.979059 5.649470 
0.637251 7.419733 5.591620 
5.861854 5.994083 1.514452 
5.859069 6.307428 1.352302 
5.885314 6.291495 1.317834 
-8.976876 8.791079 1.384001 
-9.136167 8.869073 1.413188 
-9.167661 8.953977 1.467433 
-6.297845 13.977509 3.908011 
-6.221032 13.727179 3.753984 
0.156472 13.099027 0.031293 
-0.044908 12.877928 -0.249524 
0.037863 12.909132 -0.091891 
-7.570236 14.698850 4.089487 
1.179716 10.081014 -2.096968 
1.219301 10.131287 -2.462540 
0.830851 9.853671 -2.328017 
-4.294511 16.329960 -0.775491 
-4.959728 13.635165 2.084670 
-5.055167 13.669683 1.637298 
-3.095433 17.044205 -0.232025 
-5.859190 14.729247 -0.325247 
-5.823664 14.855560 -0.115066 
-6.008905 14.638474 -0.340266 
-6.173269 3.554641 4.433898 
-6.361687 3.433391 4.394434 
-1.329578 9.659893 5.438455 
-7.385645 15.189432 -2.647235 
-7.402086 15.333954 -2.923120 
-5.268867 14.763937 -0.445887 
-5.326018 14.732055 -0.462233 
-5.290893 14.758016 -0.358836 
3.272210 3.749601 0.974574 
3.480394 3.730845 0.991998 
-5.406022 4.962427 2.425689 
-8.841574 11.825690 4.451030 
-9.043089 11.892162 4.636473 
2.337816 12.227366 -0.121845 
2.345031 11.853431 -0.567941 
2.560461 12.043615 -0.188654 
2.590924 5.940347 -1.835949 
2.649741 5.834304 -2.020084 
-0.536445 3.717164 -1.775033 
-0.488120 3.780807 -1.757237 
-0.512372 3.802635 -1.739761 
-1.891933 3.838012 1.601679 
-1.843552 3.599972 1.887691 
-2.006330 3.785538 1.546108 
-4.580525 12.403820 2.477289 
-4.592516 12.408331 2.668654 
-4.662420 12.385204 2.409351 
-6.800819 8.427196 -1.739695 
-6.598453 8.810802 -1.802481 
-4.804935 11.489031 3.106176 
-5.148523 11.830709 3.476061 
3.095466 11.550325 -0.087577 
3.223595 11.523123 0.027545 
3.085236 11.736444 -0.218266 
-9.094006 14.000569 2.395603 
-8.963866 14.264003 2.201484 
-9.138662 14.264033 2.137039 
6.082639 5.925764 1.549785 
-8.996005 9.249161 2.066736 
-8.757936 9.357976 2.121217 
-8.661211 9.343503 1.994875 
-1.713999 9.250719 -3.416749 
-1.948126 9.497365 -3.425576 
-2.266931 9.103251 -3.537382 
-5.137448 14.081695 1.016036 
-4.716894 14.005878 0.729589 
-4.903760 14.375667 1.281572 
-6.085771 11.088856 -1.802114 
-5.901937 11.187700 -1.348803 
-5.765351 11.180613 -1.437577 
4.254816 7.337152 -0.822324 
4.232040 7.420502 -0.719055 
4.022441 7.633526 -0.676841 
-6.729185 16.672445 -1.872140 
-7.140718 16.735046 -2.086895 
-6.894231 16.606703 -1.695067 
5.809408 5.739393 2.706250 
5.740330 5.796971 2.515755 
5.800166 5.999885 2.821904 
-3.721887 12.156184 -1.291833 
-3.948514 12.131050 -1.174631 
-6.257589 3.842440 -0.714479 
-6.343793 3.870232 -0.959004 
-6.060184 3.843197 -0.649409 
-5.684575 7.046329 4.066288 
-5.940220 7.320948 4.235840 
-5.873236 7.233906 3.787583 
3.230963 11.878486 1.833904 
2.950769 11.785501 1.797239 
-6.373377 16.996765 -5.223126 
-6.240860 17.332901 -5.353127 
-6.439741 16.819660 -5.118037 
2.973830 11.723818 -0.260055 
2.631476 11.550584 -0.502508 
2.968817 11.991158 -0.418229 
2.861355 8.362489 -2.267031 
-1.132555 13.183603 0.700225 
4.473378 6.307916 -0.511339 
4.496032 5.890135 -0.310487 
0.745421 10.007408 4.731527 
0.532645 10.234199 4.659678 
0.681868 10.117208 4.427889 
-1.459918 3.778987 1.357657 
-1.771623 3.793413 1.431590 
-1.534481 3.752779 1.166699 
1.001340 4.455184 -2.521262 
1.173359 4.141779 -2.525009 
4.777235 4.517006 2.421757 
4.241146 4.337688 2.457842 
4.543209 4.210360 2.438400 
-4.130814 13.010954 0.251949 
-4.265686 13.001772 0.715906 
-4.084747 12.847204 0.324743 
-5.034940 6.142831 3.013406 
-5.247700 6.111700 3.211936 
-5.072151 6.120690 2.985970 
-9.122764 13.736899 1.549898 
-8.983923 13.699084 1.425555 
-8.872615 13.881379 1.464693 
-5.286323 15.744239 0.044103 
-5.592373 16.131474 0.030608 
-5.492174 15.771738 -0.181070 
0.693582 9.214341 5.471385 
0.860675 9.121251 5.373466 
1.050431 9.480901 5.056516 
2.889616 4.573799 -0.699045 
2.662936 4.623386 -0.789496 
4.170884 10.002515 1.631238 
4.272589 10.020948 1.479968 
4.115833 9.874576 1.744856 
-8.921515 11.527853 1.063981 
-9.175157 11.259529 1.209169 
-0.991077 11.022261 -2.085040 
-1.099442 11.064686 -2.020439 
3.880173 10.568767 1.422612 
3.876039 10.621633 1.734461 
4.251945 10.732119 1.780098 
-2.417801 10.673053 -2.218838 
5.474987 5.883392 2.529961 
-8.722495 15.310274 2.260787 
-8.645889 15.340010 1.955990 
-6.552358 7.023203 -1.355231 
-6.627338 7.546276 -1.378420 
-6.369028 7.170485 -1.483385 
-6.168517 3.559008 4.626632 
-6.104255 3.726897 4.263615 
2.184056 4.306691 -1.379217 
2.196604 4.087840 -1.336414 
2.271216 4.034276 -0.910472 
-7.479473 15.329432 -2.829448 
-7.075936 15.715992 -3.082388 
2.074304 9.674785 -2.243236 
-5.391977 14.553097 -0.256409 
-5.396847 14.401518 -0.028275 
-5.698782 14.396252 -0.269418 
5.521999 5.984346 0.047629 
5.636164 6.387753 0.450670 
5.764697 5.936306 0.081059 
-6.542167 15.574573 -0.257514 
-6.702590 15.251849 -0.252333 
-6.352088 15.209163 -0.170591 
-9.095926 12.172418 4.613843 
-8.939512 12.130290 4.417089 
1.620329 9.168693 4.897858 
2.078503 9.221661 4.765960 
1.621336 9.369210 4.923156 
-0.727785 3.885225 0.383759 
-0.818365 4.053572 0.671515 
-0.832856 3.828454 0.418338 
-5.832021 6.203514 -0.065263 
-5.762804 6.152377 -0.280350 
-5.748446 5.824501 -0.070182 
-6.677852 18.223738 -5.934942 
-8.578413 11.784517 4.482101 
-8.647605 11.799571 4.709613 
-8.973995 11.819757 4.785173 
-5.207689 16.286322 -0.125252 
-5.290880 16.367907 -0.277631 
1.070385 6.826300 5.515873 
0.928973 6.956629 5.407638 
-5.871140 13.741475 -0.783936 
-5.938740 13.672780 -0.820885 
-6.156072 13.545278 -0.418696 
3.935837 10.474315 1.501771 
4.059788 10.155261 1.388992 
-0.942349 13.004415 0.495999 
-0.974926 13.025076 0.450870 
-0.819629 12.853347 0.313426 
-0.019410 10.162682 -2.340024 
-0.326187 9.839905 -2.661744 
4.156801 10.581415 0.946781 
4.116215 10.440226 0.675111 
4.161880 10.442404 0.779539 
-0.125666 3.563490 0.618804 
-5.931446 8.230827 -1.949186 
-5.708203 8.030329 -2.145921 
-3.481655 8.781753 -2.669395 
-3.139735 9.186274 -2.466599 
-3.204659 9.015313 -2.508168 
-7.101732 16.740576 -1.785913 
-7.321927 16.424528 -1.722048 
5.832805 6.237194 2.836227 
-8.629934 15.261424 1.007281 
-8.573245 15.416707 1.089521 
-8.956192 15.044711 1.445099 
-3.740128 12.031259 -1.063923 
-4.104399 12.203253 -1.424121 
-5.284945 8.031768 -2.175697 
-5.167294 7.857759 -1.927133 
-5.368611 7.761278 -2.159206 
2.815926 11.727501 2.078872 
3.206428 11.640256 2.006415 
4.637605 9.142071 0.755588 
4.701036 9.044875 0.650845 
4.397306 9.239233 0.842507 
2.503955 9.077854 -2.101185 
3.039083 9.230705 -2.099882 
2.546112 8.874511 -2.245564 
-5.991835 9.314368 -1.797954 
-5.708818 9.616807 -2.245627 
-5.967774 9.690182 -2.258776 
-2.081453 12.585260 1.311229 
-1.801888 12.959315 1.567451 
3.792451 11.243101 0.471376 
3.713546 11.350357 0.303159 
3.762703 10.767862 0.368264 
-6.514732 14.695894 -1.987980 
-6.242065 14.960856 -2.028619 
-6.028779 15.104772 -1.912101 
1.625616 3.427804 -1.360844 
1.526939 3.468679 -1.610812 
-3.989387 5.933877 -1.332902 
-3.911007 6.065039 -1.435737 
-2.630007 3.699840 5.229214 
-2.781381 3.464936 5.371621 
-2.751272 3.679788 4.745433 
1.065243 4.687606 -2.676722 
1.184313 4.448291 -2.509516 
-8.106156 7.114762 1.511506 
-8.043707 7.211828 1.837360 
-6.637602 17.285318 -5.379512 
-6.677064 17.293480 -5.136885 
-6.425116 17.309223 -5.149096 
-3.502703 5.063766 -1.088506 
-3.515139 5.505336 -0.862621 
-3.430668 5.379214 -0.924282 
-0.287785 11.257506 4.294074 
-0.313658 11.347869 4.001714 
-0.596523 10.887764 4.225726 
-1.221667 16.766006 -2.042995 
-0.968857 16.736753 -1.838728 
-1.059519 16.884140 -2.376697 
5.052246 4.572274 1.398676 
5.299601 4.384321 1.414993 
5.667944 4.838732 1.430379 
-8.677227 8.446914 1.146943 
-8.911159 8.896078 1.512100 
-9.054135 8.640672 1.373119 
-1.704671 9.952298 -2.844268 
-1.403494 10.077281 -2.451512 
-1.684540 9.865173 -2.645208 
4.304883 10.389805 0.924582 
-5.828965 11.231200 -1.719093 
-6.002638 11.625152 -1.667322 
-2.381295 6.775546 -3.139840 
-2.508767 6.624269 -3.158176 
-2.492573 6.700260 -3.158247 
4.079176 7.217075 -0.907026 
-9.142255 14.250355 1.067122 
-9.184371 14.596710 1.065553 
-7.713334 8.491820 -1.379923 
-7.441791 8.282752 -1.547668 
-7.628159 8.334937 -1.316718 
-6.123402 3.622949 4.456984 
-6.139874 3.520004 4.274879 
3.044836 5.303787 -0.952302 
3.022310 5.099264 -0.861192 
4.727313 9.651190 0.741634 
4.310537 9.376287 0.272438 
4.327009 9.475264 0.611298 
-7.483388 15.577781 -2.645632 
-7.125561 15.450840 -3.089829 
-6.310480 9.533231 -1.905042 
-5.925947 9.467579 -1.766543 
-9.390614 11.724254 0.899911 
-9.250785 11.563040 0.835847 
-9.245936 11.711000 0.968361 
-5.576077 15.087664 2.825301 
-5.567094 15.037550 2.781537 
-5.539606 15.327109 2.861052 
-6.944558 16.167372 -1.591918 
-6.861139 16.093161 -1.542728 
-0.312719 12.186131 3.426353 
-0.179711 12.416934 3.572881 
-0.165003 12.454471 3.483085 
-8.904943 12.222035 4.606876 
-8.918646 12.448750 4.261626 
4.408666 5.860823 -0.445660 
-2.707683 3.588479 5.054440 
-3.039596 3.774923 4.966300 
-3.120194 3.623215 4.918921 
-6.170662 6.006426 -0.009868 
-6.203140 6.101357 -0.021387 
-4.005137 12.770396 0.962697 
-4.083306 12.958943 0.915318 
-3.837170 12.777051 0.460704 
-2.852045 9.112854 4.671704 
-2.942068 9.283570 4.257877 
-5.094978 16.135637 0.098006 
-5.497688 16.297991 -0.058421 
4.992861 6.307747 2.827344 
5.013433 6.418335 3.111820 
-5.013185 3.572946 -1.193473 
-4.788522 4.010759 -1.109126 
-4.908575 3.713803 -1.252833 
5.398593 4.761783 1.432068 
5.610947 5.162589 1.474172 
5.583302 4.920070 1.287493 
-1.142871 12.728342 2.544080 
-1.416216 12.758304 2.284822 
-1.107987 12.735415 2.778219 
-1.305693 11.072699 -2.116896 
4.542878 9.730864 0.415100 
4.253555 10.185192 0.415109 
-5.899321 4.117268 -0.985538 
-5.845204 4.394611 -0.643905 
-5.866786 4.163708 -0.694366 
-6.557564 9.357759 -2.093146 
-6.537921 9.147638 -1.848554 
-6.206991 9.430273 -2.099800 
-6.043120 14.867436 -0.985634 
-6.190351 14.930793 -0.967786 
-6.408597 14.753921 -0.856172 
5.783454 6.452826 2.674870 
-6.391787 4.155755 3.414788 
-3.824875 11.991600 -1.193051 
-4.086330 11.682264 -1.574093 
-0.708446 8.989150 -3.422083 
-0.730742 9.262380 -3.743395 
-0.377845 9.178538 -3.442273 
-5.987995 3.580468 4.293213 
2.465321 4.260268 -1.105443 
2.744485 4.345021 -1.256573 
2.304863 4.084625 -1.279897 
2.730983 12.003688 2.081807 
2.796520 11.818563 2.001058 
1.509719 13.136683 1.440772 
1.499476 13.171387 1.706473 
1.520642 13.186395 1.443002 
-5.475603 14.328799 -0.137210 
5.851775 5.819755 1.949208 
5.921138 5.979226 1.893826 
5.713945 5.999160 2.060698 
-6.517178 15.494473 -0.785727 
-6.532125 15.607206 -0.512190 
-6.386467 15.542177 -0.680477 
-2.341360 3.596446 4.659556 
-2.317538 3.542171 5.236093 
-2.635315 3.370464 5.045838 
-3.784263 12.504611 0.151787 
-3.502723 12.745736 0.419792 
-3.851465 12.950824 0.106167 
4.340111 7.566618 0.286478 
4.457558 7.834390 0.204701 
4.612281 7.867115 0.245257 
-4.505859 7.713996 -2.055517 
-4.396486 8.178687 -1.728221 
-4.286780 7.938799 -1.897900 
4.595563 8.852734 1.495114 
4.507451 8.530120 1.605675 
-3.787112 4.131647 4.072260 
-3.932570 4.283932 4.014434 
-3.892452 4.328393 4.104202 
1.767075 12.212301 -0.754858 
1.911126 12.030432 -0.949294 
3.919033 10.675623 0.379753 
4.024366 10.502987 0.234890 
3.947495 10.481558 0.190639 
-7.151155 3.839471 -0.294077 
-6.706790 4.183171 -0.116606 
-6.700166 4.099010 -0.003809 
-6.692255 16.595791 -6.148227 
-6.558172 16.650288 -5.948985 
-6.290720 16.727512 -6.130634 
-3.497828 5.001889 -1.190152 
-7.703671 15.513972 0.315621 
-8.077767 15.220688 0.593258 
-7.671428 15.553833 0.675266 
-1.091839 3.846529 -2.599214 
-1.088966 3.827488 -2.612092 
-0.732022 3.897572 -2.728533 
-5.626081 6.121167 2.184307 
-5.629658 5.969646 2.446944 
3.037207 4.776976 -1.171093 
-0.995077 10.336198 4.532445 
-1.267479 10.181477 4.445167 
-7.295907 15.974659 -2.669395 
-7.414499 15.955880 -2.848612 
-6.234983 9.629392 -1.782634 
-5.940148 9.489475 -1.878496 
5.380810 6.310804 -0.247274 
4.980427 6.322173 -0.206757 
-0.931616 8.557264 -3.636962 
-1.164222 8.972922 -3.542136 
-7.007465 16.235996 -1.298588 
1.167730 13.219267 1.364638 
0.933347 13.074609 1.389547 
-9.185398 12.640860 4.447777 
-8.861259 12.233726 4.360918 
3.260956 10.771528 -1.034456 
2.998410 10.782388 -0.897903 
-2.450013 3.656765 5.007120 
-2.341620 3.466999 4.890735 
-6.015032 6.143928 0.502307 
-6.215818 5.994812 0.161852 
-6.746056 17.054592 -4.388731 
-6.811267 17.055891 -4.106972 
-6.495370 17.107742 -4.269863 
-2.961744 9.243132 4.551613 
-2.935076 9.539538 4.392791 
-5.336782 16.602598 0.214929 
-5.328735 16.425436 0.008844 
0.644535 5.034066 4.968893 
0.750520 4.699383 5.299370 
-3.879523 3.465416 3.937232 
-3.861821 3.347710 3.913175 
-3.779402 3.584092 3.816314 
-1.363324 3.991972 3.036507 
-1.191537 3.637278 3.223989 
-1.441974 3.889052 2.869077 
4.536067 9.017020 1.271126 
4.484947 9.098836 1.636112 
4.350141 8.603821 1.382227 
1.923784 10.174691 4.578560 
1.881705 9.965219 4.282926 
-8.814013 9.599347 1.474686 
-9.084388 9.532095 1.354228 
-8.771724 9.601021 1.633250 
-3.257667 4.294634 -2.781422 
-3.318428 3.748710 -3.028020 
-3.676201 4.052127 -3.124850 
-3.378925 17.696024 -1.543664 
-3.257863 17.315016 -1.532893 
-3.021686 17.314648 -1.267852 
-3.999776 11.759004 -1.654784 
-4.054700 11.656841 -1.388886 
-3.622864 3.617203 4.465859 
-4.066886 3.629930 4.136930 
-3.689586 3.474413 4.528913 
2.866642 4.186035 2.913773 
2.699772 4.347984 3.201750 
2.744272 4.116109 3.270124 
3.345558 5.585195 -1.016911 
-1.148785 10.554959 4.563188 
-1.144487 10.221534 4.349942 
-1.053521 10.535283 4.494733 
-5.991657 9.434069 -2.007615 
-9.031048 9.470733 2.409165 
-8.989570 9.484398 2.033728 
-9.022706 9.459188 2.367212 
-6.089783 7.420010 4.176946 
0.672716 12.734432 2.826705 
0.383290 12.979540 2.860450 
0.289229 12.911605 2.756759 
4.713567 5.862468 -0.390057 
4.565859 5.816497 -0.555924 
-2.400559 3.642790 4.816795 
-2.279524 3.238591 4.773878 
-2.396609 3.365072 4.328825 
-3.963131 17.203615 -0.173636 
-3.979069 17.337282 0.157424 
-7.219172 12.873049 -0.607694 
-7.123718 12.597690 -0.793003 
-7.210318 12.482669 -1.002848 
1.466291 3.733086 4.497970 
1.915684 3.965295 4.139717 
1.526810 4.236486 4.599057 
4.435555 9.026112 1.512498 
4.695584 9.405253 1.148220 
4.719959 9.005372 1.485487 
-4.107327 4.588654 4.046019 
-4.257353 4.520831 4.385718 
-8.371497 12.667663 5.007358 
-7.945251 12.500794 5.113576 
-7.928749 12.747036 5.122612 
2.019471 10.163270 4.579857 
1.953838 10.321530 4.539993 
-8.921356 9.691935 1.248656 
-5.931808 12.571869 -0.997541 
-5.846137 12.359677 -0.812018 
-5.919001 11.189301 -1.841515 
-5.734431 11.373297 -1.510034 
4.290137 9.164650 2.479178 
4.281845 8.987250 2.548923 
4.421671 8.818952 2.571609 
-4.326266 10.348773 -2.083770 
-3.919759 10.828160 -1.816590 
-3.998615 10.459355 -1.957605 
2.965691 4.118698 2.736214 
2.967600 3.994111 3.073442 
2.614832 3.983760 2.810992 
2.913567 4.807379 -1.381561 
1.715583 13.083065 1.408739 
1.319911 12.863360 1.191339 
1.374184 12.725882 1.278841 
-7.573856 15.804065 -2.710136 
-7.326877 15.721757 -2.938425 
-6.130616 12.525392 -0.658220 
-6.306271 12.467032 -0.767473 
-9.281107 12.406282 3.748988 
-9.418815 12.480064 3.430198 
-9.258172 12.000381 3.518127 
4.113417 3.712114 0.802443 
3.917806 3.653175 1.022853 
4.201396 3.749209 0.875485 
3.949886 10.867304 0.149400 
3.907000 10.737177 0.257707 
3.751725 10.984911 0.490948 
-9.065145 9.276990 0.874430 
-8.778069 9.540533 0.842663 
-8.808229 9.789269 0.685077 
-9.132881 12.587047 4.573308 
-8.854204 12.412913 4.583472 
-2.566611 3.600570 4.944097 
-6.365908 6.012415 0.375856 
-6.454574 5.896152 0.608410 
-3.912224 12.981402 0.227537 
-3.717867 12.554176 0.733797 
-3.850669 12.559282 0.203337 
-2.669788 9.757664 4.705721 
-3.021176 9.574985 4.706541 
-4.886249 16.593353 -0.018662 
-5.106192 16.498798 -0.018299 
-4.686170 8.191938 -2.059879 
-4.610423 8.235980 -1.768113 
-4.512317 8.129656 -2.071811 
-0.558357 3.662182 -0.686059 
-1.132370 3.870265 -0.679532 
-1.057623 3.935147 -0.804900 
-8.876736 12.270908 4.597114 
-8.887664 12.582883 4.795749 
-9.009974 12.451784 4.519852 
2.165613 5.678843 4.672501 
1.921065 5.722323 4.568889 
2.069936 5.593150 4.875619 
-8.822027 9.134983 1.069625 
-8.677689 9.263477 1.095957 
-4.804297 4.132657 -1.266628 
-4.649579 4.222383 -0.960331 
-4.510128 4.254898 -1.325773 
1.804336 7.374883 4.984960 
1.621634 7.569259 5.286894 
1.605936 7.219822 5.247386 
-6.035913 3.934037 -0.965841 
-5.936273 3.877824 -0.931741 
-5.868505 4.184947 -0.862407 
-4.211330 11.744908 -1.351980 
-3.914922 11.794962 -1.741874 
-1.655600 3.467633 -2.756941 
-1.226481 3.950254 -2.518893 
-1.476004 3.859740 -2.638460 
-9.361493 11.532324 2.250449 
-9.012549 11.820711 2.552622 
-9.344713 12.024848 2.366009 
-0.943604 10.255724 4.401083 
-6.294595 12.769270 -0.833320 
-5.896251 12.634091 -0.958561 
-9.156781 11.618718 3.106250 
-9.165306 11.673768 3.291833 
-9.051196 11.793237 3.112237 
-7.782339 8.090684 3.468927 
-7.964649 8.221340 3.530201 
-7.783849 8.269041 3.406362 
-6.544477 15.586878 1.509660 
-1.754118 3.835224 3.715335 
-2.007185 4.005080 4.066755 
-1.826355 3.936078 3.605695 
-7.854066 7.077547 1.330563 
-8.391066 7.559691 1.506781 
-8.218884 7.397645 1.068169 
-7.848295 12.378856 5.322103 
-7.990718 12.371858 5.294893 
-7.495767 12.172558 5.324083 
1.471045 11.980630 3.355511 
-4.359545 16.085062 -1.002415 
-4.264160 16.248026 -1.110586 
-4.273055 16.286921 -0.884257 
-1.061710 3.943506 3.375239 
-1.435296 3.964789 3.313481 
-1.474265 4.078156 3.100476 
5.035654 4.341311 1.118782 
5.088806 4.526844 1.061689 
5.236448 4.299427 1.405597 
-3.999818 4.653722 4.046678 
-4.068758 4.459127 3.848690 
-3.296723 4.541518 4.334067 
-3.324858 4.929813 4.075639 
-3.582065 4.798353 3.963494 
2.053424 5.276207 4.762733 
-8.818146 14.095893 0.850340 
-8.459720 14.283997 0.373201 
-8.872188 13.695452 0.524195 
-6.076549 12.842951 -0.792129 
-6.145402 12.540382 -0.505256 
2.313126 9.838275 -2.311679 
2.240366 9.772303 -2.302211 
2.187982 9.795794 -2.344848 
4.208771 8.789979 3.050056 
3.741715 9.002852 3.321313 
3.668899 8.970657 3.621556 
-8.990611 12.995287 3.541602 
-8.975060 13.077549 3.174905 
-9.276815 12.886849 3.494606 
-1.324794 3.419198 -2.822962 
3.911600 6.920074 -1.038137 
4.031171 6.696989 -1.151785 
4.122011 6.776521 -0.897640 
-6.757887 15.582842 -4.462912 
-6.766981 15.629507 -4.855509 
-6.497818 15.790257 -4.944702 
-7.701812 16.115093 -2.815265 
-7.654959 16.000786 -3.059067 
-5.956105 8.917319 -2.102767 
-6.035149 9.346276 -2.051719 
-9.057561 13.651827 0.920205 
-9.244649 13.351848 0.984844 
-1.921883 3.627808 2.553915 
-2.094473 3.644170 2.319407 
-2.067035 3.674039 2.025964 
-6.297294 15.697171 1.836070 
-8.807046 12.493809 4.427115 
-9.040961 12.667000 4.495551 
-2.190278 3.629546 4.168720 
-5.103594 9.563447 4.700347 
-4.946764 9.201136 4.438922 
-6.221708 7.723538 -1.698680 
-6.611515 8.075905 -1.679623 
-6.109649 7.573181 -1.595302 
-3.536492 16.694897 -0.509913 
-3.451077 17.158752 -0.119292 
-3.620157 16.872156 -0.036733 
-6.230292 6.182745 0.636018 
-6.490191 6.088917 0.487513 
-7.118521 17.368473 -3.654990 
-7.205824 17.257561 -3.555304 
-6.910152 17.112200 -3.235317 
-2.883282 9.723037 4.394838 
-3.074955 9.641437 4.453469 
-6.333107 4.462495 4.132416 
-6.293870 4.605768 3.975418 
-6.416213 4.549161 3.818124 
-0.315495 10.836819 4.153619 
-6.672527 11.425478 -0.876714 
-6.593965 11.665006 -0.827091 
-6.423204 11.767432 -1.064682 
-0.190659 4.033430 3.603069 
5.699675 4.604498 1.148455 
-3.988537 6.016993 -1.128058 
-3.635218 6.120636 -1.369813 
2.195548 6.839616 5.005705 
2.021617 6.596953 5.011216 
-7.444209 11.523508 5.100085 
-7.252940 11.821631 5.417212 
-7.729504 11.339817 -0.260231 
-7.818844 11.328462 -0.279349 
-7.503477 11.378654 -0.491269 
3.943941 10.797978 2.568478 
3.581246 10.521992 2.866421 
4.308438 8.803123 2.928307 
-8.896625 13.132522 3.575273 
-8.862269 12.925988 3.693976 
-8.914703 13.183129 3.298835 
-4.159269 11.427840 -1.724184 
-4.297007 11.716487 -1.393918 
-1.296588 3.848892 -2.785405 
-1.327788 3.783265 -2.896002 
3.619593 6.979856 -1.046873 
-1.092479 10.387252 4.544968 
-1.194607 10.775241 4.090641 
3.389850 5.501365 -0.517187 
-6.181427 16.093946 -5.104749 
-6.312000 15.870792 -4.912869 
-6.134815 16.057072 -5.206779 
-1.742450 3.939516 1.242757 
-1.423518 3.847878 0.900199 
-1.693173 3.630240 0.844213 
-6.331625 15.417983 1.992419 
-6.552448 15.733954 2.010322 
-6.537331 15.539996 2.117212 
-2.021239 3.944396 3.505927 
-6.169176 8.038920 -2.129877 
-6.064175 7.870070 -1.902035 
-6.233094 8.179604 -2.048012 
1.123377 5.809504 5.424654 
1.107184 5.922336 5.224181 
1.180832 6.063113 5.352571 
-3.487204 12.761437 0.670603 
-3.150935 12.769340 0.574007 
-3.312664 12.750959 0.617753 
-6.166601 3.935470 4.121700 
-6.484824 4.026244 4.279570 
-6.561851 3.850019 4.242689 
-4.445236 6.502775 -1.414257 
-4.367198 6.947902 -1.445803 
-4.330894 6.566035 -1.407817 
-2.640763 3.637518 2.588446 
4.315458 10.262263 1.293234 
4.079611 10.315078 1.149824 
4.340068 10.387865 1.108933 
-3.921128 4.840714 4.164053 
-3.861679 4.950839 4.024847 
-8.148559 14.389639 3.814016 
-8.199320 14.895953 3.824641 
-7.936327 14.844305 3.653593 
2.190419 6.448061 4.716379 
-5.385648 7.330248 -1.596954 
-5.369952 7.346256 -1.972741 
-5.442068 7.539917 -1.798812 
-5.986195 12.877936 -0.508797 
-5.843411 12.654358 -0.664734 
-5.724008 4.583829 3.536255 
3.367688 7.875420 3.826643 
3.503354 8.029449 3.654046 
3.600446 8.161473 3.585901 
-3.237411 9.799942 -2.309188 
-3.523683 9.677745 -2.426090 
-3.144687 9.932242 -2.215984 
3.924823 7.167924 -1.203816 
4.146660 6.938880 -1.295930 
-7.641587 16.468920 -3.024023 
-7.798971 16.204861 -3.098543 
-6.787866 13.657299 -0.589373 
-7.134672 13.728404 -0.596073 
-6.875977 13.615299 -0.639550 
-9.310826 12.619939 1.891042 
-9.540364 12.630706 1.855936 
-9.455905 12.283568 1.674929 
-0.198639 3.723741 -1.319396 
0.038095 3.813252 -1.602866 
-0.037185 3.737515 -1.640897 
-5.778458 15.386094 1.023914 
-6.191351 15.825679 0.856063 
-9.094575 12.790756 4.543017 
-8.725898 12.658930 4.475766 
-1.917898 4.132454 3.821254 
-5.128506 9.318039 4.717809 
-4.947320 9.567085 4.314628 
-6.736741 14.746896 -2.573481 
-6.721288 14.475142 -1.909879 
-7.316304 14.392506 -2.214214 
1.514650 4.437098 4.407430 
-6.462786 5.764696 0.814759 
-6.500173 5.838772 0.975665 
-9.098407 11.840224 1.353445 
-9.260790 12.331575 1.312348 
-9.062286 11.901320 0.816338 
-2.625328 9.990049 4.483872 
-3.116250 9.942758 4.434419 
-2.621681 5.942321 3.865410 
-2.253011 6.193567 3.908766 
-2.638175 5.933567 3.804013 
-4.978195 5.391531 3.035160 
-5.342886 5.403108 3.040882 
-4.900271 5.355551 3.255555 
1.534824 11.550711 3.672381 
1.365422 11.666173 3.636550 
-4.359991 16.034996 -1.000450 
-4.472268 16.270096 -0.665342 
-4.554799 16.380363 -0.988071 
3.951961 10.570303 1.044147 
4.003877 10.733678 1.261864 
4.116840 10.459434 1.464645 
-1.863750 6.488897 4.959102 
-2.178519 6.594676 4.800603 
2.281286 6.855749 4.754563 
1.947818 6.719722 4.903087 
-5.398082 4.816481 -0.260968 
-5.714082 5.106663 -0.200223 
-2.667973 16.235613 -1.398509 
-3.070094 16.030624 -1.725356 
-2.892298 16.228153 -1.319328 
-5.686384 13.205142 -0.737045 
-2.462989 6.916342 -3.633297 
-2.625537 7.004673 -3.414572 
-2.585484 6.749310 -3.598572 
3.996229 9.349378 3.231500 
3.738366 9.394446 3.223031 
4.017848 9.439614 3.134544 
-3.314724 3.551791 2.662108 
-1.596183 3.905547 -2.961216 
-1.488089 4.171699 -2.686014 
1.862633 12.456465 2.701278 
2.141839 12.271427 2.583870 
-1.080409 10.752239 4.071193 
-1.316430 10.889206 4.371852 
-3.452352 17.373384 -1.266919 
-3.148202 17.365702 -1.522924 
-7.127822 13.737999 -0.946659 
-7.101428 13.747925 -0.545618 
-7.052969 13.864991 -0.979921 
-3.158636 12.606652 1.432228 
-2.814800 12.627936 1.284844 
-3.026372 12.388225 1.335220 
-9.000552 14.427566 2.790910 
-9.039509 14.107486 2.606465 
-9.200606 14.293884 2.868400 
-1.699476 3.916032 2.052451 
-4.522150 12.667960 0.223000 
-4.360059 12.910083 0.268475 
-4.367227 12.584363 0.257516 
-1.920398 3.843977 3.282219 
-7.164120 8.534827 -1.416195 
-7.350526 8.726506 -1.404120 
-7.454757 8.351303 -1.532104 
-3.714597 12.876044 1.610232 
-3.679082 12.949187 1.578366 
-3.783332 12.788462 1.451248 
-2.328831 7.045362 4.693058 
-2.065780 7.118354 5.086391 
-2.434656 7.279377 5.024804 
2.326111 12.780329 0.020831 
1.990780 12.698858 0.195409 
2.296635 12.360182 -0.141436 
-3.102335 15.737776 -1.255782 
-3.208990 15.956528 -1.334488 
-3.427308 15.691997 -1.282650 
-4.630692 10.621815 -1.988139 
-4.597394 10.469134 -2.084126 
-4.405285 10.385404 -2.197923 
-5.434645 14.259599 2.516604 
-5.566091 14.392759 2.614683 
-5.468110 14.362389 3.079791 
-3.738251 4.826474 3.833823 
-4.266436 4.682889 4.056149 
-7.762169 9.460449 3.748926 
-7.699707 9.606691 3.539573 
-7.761508 9.811749 3.423337 
4.404404 7.930905 0.093722 
4.606627 8.265170 0.264176 
-0.883545 3.779775 1.365424 
-0.931091 3.897734 1.215233 
-0.944359 3.614275 1.258672 
3.769582 6.160274 3.405496 
3.334855 5.695688 3.501434 
3.652053 5.765169 3.624033 
-3.216970 10.253412 -2.101126 
-3.098747 10.172355 -2.195926 
-2.930660 10.294309 -2.093171 
3.820712 7.111686 -0.944551 
-7.702862 16.230591 -3.074226 
-7.703489 16.150848 -2.861542 
1.063894 9.613140 -2.589117 
1.060016 9.517572 -2.568193 
1.026062 9.500678 -2.660156 
0.084046 10.904982 -2.114937 
-1.234671 12.336861 2.866826 
-1.412947 12.574763 3.251230 
-1.497623 12.499354 3.186889 
-2.899544 4.025716 -0.513374 
-2.614444 3.952103 -0.442633 
-2.479520 3.865265 -0.591534 
0.260988 4.019509 -1.417043 
0.077521 4.024374 -1.051720 
0.017278 4.009186 -1.216993 
-6.859828 4.184082 0.925539 
-6.582814 4.676261 0.883050 
-6.569539 4.341564 0.820163 
0.215942 6.130691 5.434767 
0.053881 6.286397 5.431534 
-0.009744 6.186103 5.793587 
-4.779727 9.557133 4.374802 
-5.235211 9.409472 4.248361 
-8.074004 12.883742 -0.375815 
-8.083475 12.709571 -0.376679 
-8.046218 12.832893 -0.355447 
-6.231029 6.111729 1.211564 
-6.452329 6.117640 0.895378 
-3.743016 12.803732 1.506519 
-3.758298 12.578362 1.306367 
-3.684815 12.846270 1.205920 
-3.083278 10.039192 4.315203 
-3.007526 10.106831 4.382124 
-6.617416 3.530576 3.637617 
-6.694180 3.679552 3.525838 
-6.813210 3.640984 3.673481 
-9.230307 13.008105 3.769760 
-8.806293 13.257126 3.763450 
-9.124565 13.413960 3.973831 
4.809904 4.739212 2.959244 
0.020121 7.502646 5.934563 
0.063491 7.656219 5.694304 
-0.288656 7.850043 6.036885 
-4.701282 6.371777 -1.264988 
-8.361714 14.664346 3.780713 
0.596374 8.295286 5.733047 
0.466004 8.360929 5.352902 
-5.534986 5.400587 -0.171822 
-5.378886 5.028472 -0.350612 
4.534495 7.728626 0.227050 
-5.928811 12.983598 -0.943654 
4.087102 8.432138 -0.661185 
4.219956 8.646232 -0.706192 
4.147791 8.523401 -0.595065 
3.312453 5.989537 3.746931 
-3.331284 9.730260 -2.220733 
-1.242687 4.284015 -2.628954 
-1.127034 4.043879 -2.647317 
4.015094 7.347342 -1.056295 
3.834532 7.241988 -1.349719 
3.765831 7.472327 -1.136671 
1.834828 12.567378 2.873017 
2.089893 12.160484 2.698599 
-1.106949 10.773226 4.421750 
-1.071864 10.774029 4.381237 
0.018917 10.743095 -2.301853 
-0.038967 10.682258 -1.949889 
-9.580271 11.844574 1.996740 
-9.313237 11.744418 2.336633 
-9.386983 11.844000 2.033471 
-9.438752 12.479382 1.648348 
-9.252173 12.078660 1.708376 
0.037693 3.472303 -1.916489 
0.072143 3.315804 -1.624113 
-0.097557 3.193990 -1.617134 
-7.593771 16.989258 -2.521989 
-7.606174 16.666140 -2.337981 
-7.640313 16.662020 -2.463857 
0.121077 9.492932 5.549811 
0.077060 9.323399 5.365361 
0.130281 9.593196 5.336693 
-1.626921 4.051373 3.178702 
-7.812495 12.725017 -0.410345 
-6.581634 10.617908 -1.666991 
-6.796197 10.469301 -1.571851 
-6.750781 10.536981 -1.208844 
-2.116921 4.082956 3.561046 
4.047948 8.127193 3.460715 
3.639641 8.383321 3.525797 
-0.396598 9.238731 5.832446 
-0.259687 9.603662 5.734692 
-0.775345 9.406091 5.657715 
-4.706693 15.909447 -1.069319 
-4.659488 15.718962 -0.645960 
-4.042329 5.109615 3.879991 
-4.056730 5.302184 4.142821 
-3.735924 16.965612 -1.204872 
-3.621928 16.970110 -1.134328 
-3.731363 16.989002 -1.551457 
4.555784 9.416053 0.278624 
4.474380 9.494016 0.241237 
4.424222 9.520921 0.104678 
4.490386 8.567577 1.000574 
4.487217 8.810340 1.055086 
-2.003693 9.138261 5.785551 
-1.768752 9.017881 5.735385 
-1.901581 9.251706 5.580648 
3.562297 6.087029 3.511708 
-9.194881 15.192915 2.163760 
-6.323788 15.309549 -0.831437 
-6.555913 15.265679 -0.690071 
-6.256427 15.004650 -1.177701 
-3.625899 3.306987 0.618927 
-3.595675 3.465954 0.401517 
-3.839740 3.126811 0.690728 
-7.972239 16.647110 -2.963441 
-8.017703 16.458178 -3.130184 
0.586895 9.806326 -2.695806 
0.229753 9.354095 -2.897840 
0.028363 9.557055 -3.064240 
-8.872424 11.289092 1.470389 
-8.227144 10.869215 2.606790 
-8.671995 10.645665 2.395026 
-8.426417 10.639940 2.751330 
-0.471551 3.991050 1.640391 
-0.555473 3.620263 1.677750 
-0.409264 3.725109 1.174478 
-3.900798 12.147554 2.859653 
-3.588854 12.185957 2.978198 
-3.680144 12.168170 2.710904 
0.530966 7.312296 5.688146 
0.517305 7.297202 5.694911 
0.340144 7.451457 5.502027 
-4.848580 9.987189 4.529716 
-4.983999 9.754488 4.428617 
0.585742 3.375765 -2.298170 
0.432842 3.960051 -2.205611 
0.563170 3.508102 -2.555308 
-6.605327 6.137198 1.282099 
-6.275879 5.943904 0.992819 
-6.501126 3.320820 -0.700134 
-6.183130 3.788375 -0.999683 
-6.254669 3.516869 -0.790176 
-2.756293 9.964840 4.354962 
-2.980527 10.278891 4.104200 
-1.808560 6.600382 4.904816 
-2.050280 6.738974 4.766416 
-6.154641 15.061893 3.511068 
-6.160399 14.793617 3.433616 
-6.336650 14.644788 3.708870 
-4.493881 10.334311 -1.962160 
-7.872665 9.645131 3.757365 
-7.877998 9.872512 3.404385 
1.681376 11.860369 3.391175 
-5.491312 5.455392 -0.095485 
-5.345361 5.445282 -0.527953 
4.655304 9.517353 0.540471 
4.445570 7.969061 1.323115 
4.492989 7.946512 0.886982 
4.495155 8.106412 1.044620 
-3.421025 4.010581 4.722881 
3.512066 6.059066 3.787363 
-3.782519 11.081018 -2.080775 
-3.819384 10.990345 -1.953157 
-3.702659 10.937283 -2.012115 
-1.481894 4.186272 -2.919783 
-1.220497 4.176627 -2.719980 
-6.146076 14.936748 -1.077070 
-6.203511 15.036786 -0.706108 
-3.541879 3.445090 0.555754 
2.080791 12.222715 2.715086 
1.905222 12.397532 3.000802 
-0.927466 11.183162 4.156570 
-1.396891 10.802229 4.036165 
1.592902 12.853418 0.075698 
-6.818563 16.695774 -3.405380 
-6.867495 17.153727 -3.355103 
-6.641226 16.949800 -3.580306 
-8.421545 8.379940 2.444430 
-8.572903 8.856312 2.319270 
-8.780398 8.690952 2.334535 
0.068437 4.042124 -1.521983 
-6.982811 15.841008 1.913229 
-7.427290 15.436467 1.926507 
-7.321976 15.808919 2.378077 
4.259373 5.513506 3.396801 
3.989843 5.077062 3.281678 
-8.133210 7.398086 1.879430 
0.521734 3.568791 -2.432579 
-5.052786 4.786338 2.091783 
-4.925766 5.048290 2.323685 
-3.955981 4.879276 -1.078440 
-3.898115 4.824716 -1.052382 
-3.754936 4.882775 -1.009064 
-5.216778 15.300550 2.539905 
-5.330652 15.064672 2.673762 
-4.692401 7.951465 -1.785427 
-4.787572 8.048205 -1.984991 
-4.712792 7.531789 -1.681450 
-3.929421 5.438653 4.091837 
-3.951788 5.402036 3.726177 
-3.958053 6.118405 -1.222697 
-3.963543 6.431940 -1.070331 
5.852025 6.446754 1.127894 
6.246010 6.535526 1.449293 
-7.452535 16.225023 -1.680785 
-7.518623 16.606873 -1.985469 
-7.279000 16.587250 -2.060814 
-5.993241 13.494508 -0.817375 
-4.063741 8.129537 -2.192373 
-3.658354 8.125798 -2.331687 
-4.021327 8.240895 -2.141532 
-1.921373 9.611502 4.372757 
-1.970255 9.753577 4.667362 
3.830989 6.640037 3.716738 
3.749233 6.396152 3.905612 
3.402298 6.345079 3.727034 
-9.468421 12.399330 2.563235 
-9.458085 12.697739 2.550593 
-9.378111 12.623447 2.709580 
4.250066 8.761844 -0.693471 
4.346529 8.771366 -0.727125 
4.034447 8.434943 -0.708473 
-3.766746 3.600639 0.904553 
-3.877234 3.523878 0.807640 
-8.733747 8.524261 2.743943 
-8.402285 8.682609 2.498472 
-8.684501 8.698437 2.640552 
-5.758715 4.092901 2.151941 
-5.625071 4.316240 2.006338 
-5.974441 4.024356 1.931032 
3.358438 3.714935 -0.116551 
3.695163 3.862832 0.019942 
-0.751061 3.964836 1.862831 
-0.516257 3.698852 1.756359 
-0.683967 3.700456 1.402970 
-7.364974 15.359322 -3.664872 
-7.131351 15.077472 -3.676385 
-7.200250 15.094108 -4.163133 
-1.907459 18.941586 -1.731343 
-1.504571 18.457796 -2.148137 
-1.849789 18.519983 -2.121352 
0.662910 3.967296 4.551230 
0.569502 4.021185 4.420616 
0.570683 4.045978 4.518218 
-4.891208 9.788661 4.454624 
-4.900388 9.960438 4.438496 
0.662990 3.867236 -2.250683 
0.726956 3.688736 -2.501726 
-6.340528 5.895027 1.211609 
-6.523521 5.865306 1.202654 
-5.977108 4.041268 2.191687 
-5.767410 3.822928 1.934933 
-6.050631 3.852580 2.403468 
-2.749465 10.322313 4.394596 
-3.117197 10.129056 4.027007 
-1.085123 6.060718 5.435794 
-1.307877 6.082458 5.204080 
-1.478310 5.913264 5.177066 
-2.149785 16.227087 -1.527257 
-2.117926 16.427216 -1.303001 
-2.525622 16.412457 -1.583583 
-4.655685 15.939898 -0.727505 
-8.015403 6.821917 1.003225 
-4.296085 4.074102 4.466789 
-4.372239 4.111555 4.560994 
2.011418 7.122682 5.136563 
1.937862 7.029955 5.033071 
-5.581908 5.535696 -0.582615 
-5.378392 5.335960 -0.581579 
3.405701 10.906585 2.483587 
3.429550 10.909613 2.740494 
3.646817 11.218178 2.497341 
-5.942538 13.642324 -0.846692 
-5.743864 13.344291 -0.453741 
-1.314025 16.418901 -1.047835 
-1.276081 16.600069 -1.261903 
-1.372268 16.232182 -1.083098 
3.392553 6.221324 3.620748 
3.336288 6.080781 3.825658 
-9.292340 14.840332 2.120393 
-9.251103 14.664232 2.180055 
-8.952760 15.124099 1.847983 
-7.019669 11.421512 -1.104243 
-1.603311 4.461298 -2.681703 
-1.559002 4.752723 -2.881551 
-4.847587 5.010592 1.481568 
-5.066440 5.350874 1.551000 
-5.240088 5.221977 1.252173 
1.895410 12.481216 2.983705 
1.814418 12.070826 2.859187 
-7.577538 16.664471 -3.215531 
-0.174433 11.937962 -1.548282 
-0.596301 11.959143 -1.247121 
-7.562894 15.483782 2.771227 
-7.775046 15.483630 2.889499 
-7.493047 15.426093 3.172641 
-5.888430 4.322303 3.032865 
-5.932980 4.532565 2.991693 
-6.068757 4.712225 2.870858 
-7.000301 16.890493 -3.101167 
-7.064165 16.854303 -3.233845 
-6.934246 17.242521 -3.009734 
1.933522 9.684269 4.851160 
1.753251 10.090826 4.647391 
-7.629472 17.165131 -3.318328 
-7.736523 16.857033 -3.068585 
-7.926232 16.824753 -2.965332 
-7.695317 10.719923 3.181582 
-7.505474 10.608217 3.635857 
-7.941566 10.392266 3.540200 
-6.988383 17.325651 -3.150546 
-7.042579 17.218456 -3.088575 
-7.257863 17.126728 -3.019155 
-6.127153 15.431728 -4.048579 
-6.419712 15.715807 -4.214098 
-4.710790 4.886333 -0.739316 
-4.801625 5.103751 -1.041612 
-4.784708 5.253284 -1.169938 
-8.394475 8.073859 2.383429 
-8.408768 7.610243 2.512845 
-8.520818 8.064410 2.402846 
-3.705513 5.377381 4.106951 
-3.879738 5.447469 3.868728 
-7.565443 10.426765 3.424206 
-7.727772 10.126504 3.781462 
-7.583721 10.563164 3.297045 
2.147213 7.056589 4.989747 
-7.193449 16.274132 -1.555620 
-7.046737 16.556807 -1.839210 
5.763642 5.474788 1.219683 
5.969237 5.486021 1.028643 
6.121633 5.622357 1.414274 
-4.633867 5.611869 3.621593 
-9.528089 12.587476 2.505008 
-9.374833 12.731254 2.431463 
-6.958320 11.822283 -0.747323 
-6.793425 12.097146 -0.723085 
-6.555028 11.862448 -1.065404 
2.970802 4.990660 -0.877147 
-3.765158 3.573452 0.884391 
-3.704025 3.434038 0.697961 
-0.285033 3.802021 2.349269 
0.003591 3.680004 2.267388 
-0.336566 3.700666 2.233514 
1.379493 12.686584 -0.382683 
1.342405 12.894214 -0.285750 
1.206032 12.714338 -0.262454 
-4.711103 8.950760 -2.003457 
-4.552856 9.129411 -2.250147 
-3.459454 3.395503 2.074755 
-2.325213 3.747928 3.340243 
-2.346902 3.760545 3.198714 
-2.003283 4.100387 3.082368 
-7.323545 16.807270 -2.860416 
-6.332082 3.915513 2.543917 
-7.583115 10.777168 3.178480 
-7.941415 10.725950 3.268168 
-4.921119 9.957297 4.512478 
-5.097626 9.935091 4.393139 
0.690777 4.288486 -2.598608 
0.403882 3.801624 -2.449030 
-6.414225 5.795671 1.553565 
-6.434361 5.763438 1.496202 
-3.022442 10.276343 4.229322 
-2.900408 10.657411 4.325285 
2.316159 8.796247 -2.573597 
-4.088511 8.555081 -1.923197 
-4.441692 8.834112 -2.248750 
-2.277164 3.352436 -1.855109 
-1.923674 3.877064 -1.789372 
-1.989132 3.385295 -1.796798 
-1.680912 13.023021 1.559123 
-1.416797 16.280010 -1.326888 
-1.546046 16.341518 -1.184795 
-1.824474 16.058058 -1.082834 
-1.998239 16.473768 -0.933837 
-2.325785 16.664608 -1.189806 
-5.666032 5.824165 -0.183444 
-5.469232 5.369152 -0.194858 
-6.319491 8.987527 -1.682044 
-1.035813 16.480844 -1.125699 
3.661639 6.552584 3.804672 
-9.443488 12.690136 2.579631 
-1.649026 4.490441 -3.080102 
-1.550071 4.508317 -2.880893 
3.929246 8.103729 -0.767775 
4.386558 8.260794 -0.793117 
4.379102 8.242911 -0.826502 
1.885108 12.029130 3.155000 
1.973101 12.113588 3.107778 
-6.061994 11.250026 -1.637627 
-5.992842 11.423015 -1.250693 
-6.222121 11.080977 -1.327307 
-5.796940 6.650301 -0.927516 
-6.082293 6.732281 -1.405449 
-5.758335 6.597376 -1.083170 
-0.379860 9.610885 5.386173 
-0.107627 9.649437 5.155234 
-0.495279 9.566695 5.230314 
-0.128129 3.972146 0.970853 
-0.551101 3.851903 0.780429 
-0.628778 3.746410 0.643694 
-0.166921 12.501338 3.272021 
-0.257778 12.421549 3.416273 
-0.281444 12.543807 3.510003 
-6.186543 16.769121 -6.175071 
-6.107463 16.879110 -5.933836 
-7.834740 10.933134 3.399751 
-7.820256 10.612105 3.424196 
-5.741992 14.225727 -0.674908 
-5.900789 14.256876 -0.394555 
-3.898610 12.844348 -0.306395 
-3.795866 12.798378 0.103394 
-3.683794 12.587250 -0.237708 
-2.399572 16.107256 -1.774752 
-2.348519 16.378763 -1.562380 
-2.214539 16.143351 -1.576619 
1.501175 10.522161 -2.245435 
-1.237525 3.309655 -2.115080 
-1.700078 3.290913 -1.736203 
-1.575836 3.160474 -1.964477 
-2.721441 3.611215 -0.610379 
-2.612286 3.631199 -0.884651 
-2.455242 3.236855 -2.469651 
-2.851200 3.573033 -2.464845 
-2.687201 3.457565 -2.873932 
-3.708832 5.478876 4.196768 
-4.155601 5.358700 4.068479 
-8.822086 12.939325 4.820084 
-8.815616 13.028498 4.330747 
-8.881268 13.062012 4.374971 
-6.210095 13.688321 -0.790764 
-5.822224 13.777385 -0.713115 
3.753775 10.924093 0.566190 
4.279473 10.498444 0.644173 
4.224278 10.751291 0.307988 
-9.339304 13.008311 2.762113 
-9.378785 12.652860 2.786163 
-4.774457 8.883124 4.619439 
-4.893824 9.111359 4.339985 
-7.344427 9.976141 -1.133353 
-9.425605 12.627396 1.657917 
-9.280420 12.458621 1.535452 
-9.133884 12.342046 1.513495 
-3.787244 3.760469 0.799788 
-4.100521 3.687697 1.201030 
-9.127483 13.496743 3.757990 
1.433780 9.773308 -2.119400 
1.461593 9.931301 -2.345426 
1.428681 9.795928 -2.400917 
-2.304984 3.981051 -0.389026 
-2.385887 3.669296 -0.521481 
-2.536020 3.993126 -0.692110 
-7.282018 18.241390 -5.464214 
-7.594974 17.985998 -5.544095 
-7.494336 18.035027 -4.945148 
-5.683656 4.766293 2.976945 
-1.964416 3.781223 1.361503 
-2.108466 3.571865 1.138254 
-8.854242 10.219797 2.645331 
-8.650408 10.290463 2.496933 
-8.921684 10.081126 2.533879 
-1.770115 12.575856 3.143955 
-1.765975 12.274387 2.970597 
-7.343438 15.291764 -3.861956 
-7.298584 15.181377 -4.232681 
-5.041581 10.063771 4.405762 
-5.081786 9.943906 4.109735 
0.334367 4.319290 -2.496550 
0.555271 4.359398 -2.197303 
-6.753047 5.903140 1.561710 
-6.525965 5.949906 1.673886 
2.377864 6.520241 4.617492 
2.112369 6.574216 4.809729 
-3.547285 12.733728 -0.416457 
-2.888991 10.367595 4.056670 
-2.882622 10.525864 4.206592 
-2.619409 8.957728 5.177248 
-2.526224 8.999045 4.969687 
-2.891223 8.529266 4.913036 
3.121624 11.503969 -0.500974 
2.704084 11.441354 -0.884618 
3.027820 11.842468 -0.599727 
4.286262 9.253087 -0.086661 
4.172440 9.724353 -0.225983 
4.279133 9.438312 -0.076938 
3.607153 4.308940 -0.378425 
3.964095 3.986381 0.123453 
3.844292 3.963207 -0.032651 
-9.116871 11.249734 3.392465 
-8.948285 11.347407 3.503884 
-8.953709 11.389940 3.605588 
-8.560277 10.947711 1.275107 
-8.854255 10.600522 1.239344 
-8.513865 13.298012 4.669646 
-5.551398 5.580395 -0.135992 
-5.673286 5.594998 -0.313002 
-4.471161 14.681643 0.438430 
-4.598958 14.886785 0.515587 
-4.567559 14.562364 0.570271 
-2.519944 4.034929 0.228728 
-2.802510 3.814270 0.007919 
-2.278572 3.632143 0.128180 
3.399484 5.084539 -1.175948 
3.256778 4.900024 -0.871486 
1.606574 12.136176 3.486859 
1.650132 12.214140 3.113807 
-9.088120 9.195628 2.084199 
-9.051840 9.298820 2.402134 
-6.553203 15.645111 0.797348 
-6.443682 15.393817 0.844427 
-6.463504 15.434257 0.619548 
-5.117235 7.287935 -1.728059 
-4.549006 7.178569 -1.674370 
-4.996603 7.373197 -1.570897 
-0.481839 12.339921 3.026029 
